ncols        212
nrows        25
xllcorner    -2044441.8651
yllcorner    2025249.17408
cellsize     26.855736874859
NODATA_value -9999
-9999 -9999 -9999 -9999 -9999 -9999 -9999 -9999 1926.19775390625 1926.197998046875 1926.1983642578125 1926.19873046875 1926.198974609375 1926.1993408203125 1926.19970703125 1926.2000732421875 1926.200439453125 1926.20068359375 1926.2010498046875 1927.333984375 1934.96875 1934.952392578125 1936.5086669921875 1939.2288818359375 1939.6402587890625 1940.559326171875 1940.0743408203125 1937.0587158203125 1934.871337890625 1934.6217041015625 1933.6217041015625 1932.4761962890625 1931.205810546875 1929.58544921875 1930.468017578125 1933.8399658203125 1934.7977294921875 1933.126708984375 1932.4381103515625 1934.5152587890625 1940.0111083984375 1946.3841552734375 1954.4415283203125 1961.0401611328125 1966.2755126953125 1978.6544189453125 1988.9029541015625 1998.0201416015625 2010.25244140625 2017.4949951171875 2022.3648681640625 2020.60009765625 2012.071533203125 2001.973388671875 1997.072509765625 1992.4066162109375 1984.5672607421875 1979.2989501953125 1975.775146484375 1973.1744384765625 1969.3677978515625 1961.0751953125 1951.24462890625 1946.44921875 1943.8271484375 1940.6177978515625 1936.9400634765625 1932.013671875 1929.4971923828125 1927.2149658203125 1925.3575439453125 1925.2535400390625 1924.0457763671875 1918.9771728515625 1912.4698486328125 1910.392822265625 1911.3507080078125 1914.222900390625 1915.7633056640625 1916.122802734375 1914.973388671875 1910.4615478515625 1907.3477783203125 1904.1849365234375 1902.3192138671875 1901.49658203125 1899.61572265625 1897.1585693359375 1895.5634765625 1895.259765625 1894.223876953125 1893.2257080078125 1893.1632080078125 1893.4134521484375 1894.563232421875 1896.78271484375 1897.4862060546875 1895.871826171875 1892.85498046875 1891.3458251953125 1893.9290771484375 1894.610107421875 1890.7498779296875 1886.42041015625 1884.5390625 1882.8809814453125 1882.2420654296875 1882.892578125 1883.3380126953125 1882.9229736328125 1883.7918701171875 1886.27685546875 1887.66845703125 1888.4256591796875 1887.516357421875 1889.2569580078125 1892.080322265625 1892.120849609375 1889.9227294921875 1889.7734375 1888.966796875 1885.728515625 1882.9532470703125 1881.8057861328125 1881.679931640625 1882.7838134765625 1886.0347900390625 1887.9554443359375 1888.2384033203125 1888.8839111328125 1889.4678955078125 1890.8736572265625 1893.1953125 1895.5079345703125 1896.861083984375 1896.6749267578125 1893.6812744140625 1891.3463134765625 1888.8018798828125 1887.9364013671875 1890.1649169921875 1890.062744140625 1887.166259765625 1882.8583984375 1879.3895263671875 1878.5257568359375 1879.66748046875 1879.8787841796875 1880.783447265625 1881.17333984375 1880.95361328125 1881.2509765625 1881.309814453125 1880.43701171875 1880.474609375 1881.3421630859375 1881.827392578125 1882.6268310546875 1883.8427734375 1882.2484130859375 1880.0657958984375 1878.2210693359375 1877.0771484375 1877.041748046875 1876.3997802734375 1875.4862060546875 1872.835205078125 1872.22314453125 1876.58056640625 1880.007080078125 1881.083740234375 1880.4993896484375 1880.8341064453125 1881.8382568359375 1881.8624267578125 1880.9281005859375 1880.1756591796875 1878.5562744140625 1878.220947265625 1877.2554931640625 1877.3564453125 1877.1715087890625 1878.1387939453125 1878.2208251953125 1877.9501953125 1878.57470703125 1879.8826904296875 1880.1348876953125 1879.8682861328125 1879.463134765625 1878.432373046875 1878.464111328125 1879.00341796875 1879.5423583984375 1880.8009033203125 1882.1761474609375 1882.66162109375 1882.0640869140625 1881.8211669921875 1880.595947265625 1877.6309814453125 1875.6171875 1874.7957763671875 1876.0859375 1877.802490234375 1878.68701171875 1876.886474609375 1875.72412109375 1875.9854736328125 1877.0400390625 1877.7939453125 1877.74560546875
-9999 -9999 -9999 -9999 -9999 -9999 -9999 -9999 1926.1973876953125 1926.19775390625 1926.1981201171875 1926.198486328125 1926.19873046875 1926.1990966796875 1926.199462890625 1926.1998291015625 1926.2001953125 1926.200439453125 1926.2008056640625 1926.201171875 1930.297607421875 1932.2110595703125 1935.92431640625 1938.9951171875 1939.563720703125 1940.4407958984375 1939.5330810546875 1936.2874755859375 1935.1358642578125 1935.7069091796875 1935.22998046875 1932.927001953125 1930.5406494140625 1928.731689453125 1930.4935302734375 1934.0230712890625 1934.7113037109375 1933.3238525390625 1933.488037109375 1936.1676025390625 1940.7451171875 1945.8355712890625 1955.4598388671875 1961.7772216796875 1966.0970458984375 1976.9610595703125 1989.79931640625 2002.48828125 2013.97021484375 2020.815185546875 2025.3233642578125 2021.9625244140625 2011.1689453125 2003.5374755859375 2000.1240234375 1994.313232421875 1986.0006103515625 1979.2232666015625 1973.92236328125 1970.198974609375 1967.3607177734375 1961.3736572265625 1955.4853515625 1952.61181640625 1951.5662841796875 1950.3060302734375 1945.76513671875 1940.1962890625 1934.69189453125 1930.51953125 1929.17529296875 1929.9642333984375 1928.6669921875 1922.983642578125 1916.0887451171875 1913.08056640625 1913.88671875 1915.9622802734375 1915.4422607421875 1914.5726318359375 1910.94482421875 1906.6123046875 1903.8023681640625 1900.885498046875 1899.399169921875 1898.6708984375 1898.4039306640625 1897.145751953125 1895.0528564453125 1893.956787109375 1894.385009765625 1894.2239990234375 1893.13916015625 1892.4423828125 1893.5078125 1895.751953125 1896.849365234375 1895.3890380859375 1892.1805419921875 1890.8927001953125 1893.5736083984375 1893.718505859375 1889.2137451171875 1884.6776123046875 1883.73046875 1882.9659423828125 1882.431884765625 1883.1820068359375 1883.231201171875 1884.1357421875 1886.30859375 1888.671875 1890.7421875 1891.4617919921875 1890.4482421875 1890.98876953125 1892.6644287109375 1891.5577392578125 1889.93017578125 1889.2740478515625 1887.142822265625 1884.3330078125 1883.84716796875 1883.455810546875 1882.8861083984375 1884.2957763671875 1886.6871337890625 1887.88525390625 1888.0211181640625 1889.3070068359375 1890.8165283203125 1892.783203125 1894.2958984375 1895.2913818359375 1896.06103515625 1895.9710693359375 1893.97900390625 1891.94677734375 1890.0521240234375 1889.2374267578125 1890.8592529296875 1890.7919921875 1889.082275390625 1887.2227783203125 1883.3868408203125 1881.2418212890625 1880.5008544921875 1879.781005859375 1879.599853515625 1879.404052734375 1879.2725830078125 1881.0670166015625 1881.358642578125 1879.7568359375 1878.9285888671875 1878.726806640625 1879.4422607421875 1881.42724609375 1881.899658203125 1879.80126953125 1877.6859130859375 1875.7098388671875 1874.790771484375 1875.157470703125 1875.7818603515625 1874.1221923828125 1868.48095703125 1868.6812744140625 1873.0521240234375 1878.906982421875 1881.0557861328125 1880.84326171875 1881.2421875 1883.273681640625 1885.8192138671875 1886.927978515625 1886.7403564453125 1880.9169921875 1879.126708984375 1878.59423828125 1879.8668212890625 1879.8856201171875 1879.7056884765625 1879.095947265625 1878.3450927734375 1877.5067138671875 1877.9990234375 1878.6866455078125 1880.7733154296875 1880.8575439453125 1877.87158203125 1876.6907958984375 1876.9329833984375 1878.0391845703125 1879.0892333984375 1880.3228759765625 1881.03857421875 1881.26123046875 1881.2733154296875 1879.6519775390625 1876.0643310546875 1874.1695556640625 1874.74365234375 1876.3072509765625 1877.4503173828125 1877.5242919921875 1876.9029541015625 1876.6158447265625 1876.4376220703125 1877.3021240234375 1877.8463134765625 1877.9302978515625
-9999 -9999 -9999 -9999 -9999 -9999 -9999 -9999 1926.1971435546875 1926.197509765625 1926.1978759765625 1926.1982421875 1926.198486328125 1926.1988525390625 1926.19921875 1926.1995849609375 1926.199951171875 1926.2003173828125 1926.20068359375 1926.2010498046875 1926.7633056640625 1929.772216796875 1934.741455078125 1938.411865234375 1940.1990966796875 1941.3558349609375 1940.011474609375 1937.160400390625 1935.875244140625 1936.160888671875 1935.611328125 1933.7481689453125 1931.241943359375 1929.3258056640625 1930.0596923828125 1932.3363037109375 1932.5379638671875 1932.5303955078125 1934.537109375 1936.7550048828125 1939.1485595703125 1943.87744140625 1953.4407958984375 1962.0753173828125 1967.713134765625 1978.387451171875 1993.1290283203125 2008.2178955078125 2017.7293701171875 2023.282470703125 2027.6513671875 2022.711669921875 2012.2432861328125 2006.857666015625 2001.5389404296875 1994.65087890625 1986.2322998046875 1979.3946533203125 1972.32861328125 1967.52685546875 1966.5450439453125 1963.805419921875 1961.621337890625 1958.44140625 1958.201416015625 1957.0816650390625 1953.4833984375 1947.25341796875 1940.0142822265625 1935.9342041015625 1935.002197265625 1934.1932373046875 1931.6287841796875 1926.135986328125 1920.1365966796875 1916.708984375 1917.4097900390625 1917.434814453125 1915.43359375 1912.8360595703125 1908.073486328125 1903.6090087890625 1901.1453857421875 1899.574462890625 1898.8035888671875 1897.634521484375 1897.2568359375 1896.6798095703125 1894.4935302734375 1893.4361572265625 1895.174560546875 1895.743408203125 1893.6441650390625 1891.795166015625 1892.182373046875 1894.1600341796875 1895.850341796875 1894.469482421875 1890.8994140625 1889.734130859375 1891.55859375 1891.7586669921875 1888.2314453125 1886.8304443359375 1885.5364990234375 1883.735595703125 1883.241455078125 1884.6094970703125 1885.5546875 1887.346435546875 1889.116455078125 1890.4923095703125 1891.773681640625 1892.2325439453125 1892.30029296875 1893.498779296875 1893.8446044921875 1892.303955078125 1890.54052734375 1888.731201171875 1884.7958984375 1883.431884765625 1884.8851318359375 1885.190673828125 1884.6405029296875 1887.27685546875 1890.0936279296875 1890.81005859375 1890.715576171875 1891.3865966796875 1892.870849609375 1894.5167236328125 1895.1978759765625 1895.1956787109375 1895.182861328125 1895.394775390625 1894.1678466796875 1892.2232666015625 1890.277587890625 1889.30078125 1890.1094970703125 1889.829833984375 1890.175048828125 1890.4427490234375 1888.3267822265625 1885.9940185546875 1883.8089599609375 1881.0438232421875 1879.556640625 1878.3785400390625 1877.814453125 1879.1981201171875 1881.40576171875 1880.65625 1879.550537109375 1878.280517578125 1878.6768798828125 1880.7064208984375 1880.693359375 1878.3280029296875 1876.74072265625 1874.83349609375 1873.7164306640625 1874.424560546875 1875.38525390625 1873.05322265625 1869.3802490234375 1869.43310546875 1875.1343994140625 1879.60205078125 1880.3050537109375 1879.6568603515625 1880.593505859375 1883.8106689453125 1885.924072265625 1888.9014892578125 1888.057861328125 1884.09912109375 1881.2767333984375 1880.7569580078125 1882.044921875 1882.218505859375 1881.368408203125 1879.736083984375 1878.442626953125 1876.5640869140625 1876.957763671875 1879.09619140625 1881.486328125 1880.580810546875 1877.09033203125 1874.711669921875 1875.163818359375 1876.919921875 1877.6297607421875 1878.970458984375 1879.88720703125 1881.18994140625 1880.368408203125 1877.639892578125 1874.84814453125 1873.9984130859375 1875.485595703125 1876.927001953125 1877.2332763671875 1877.2523193359375 1878.035888671875 1877.874267578125 1877.51953125 1878.2974853515625 1879.562255859375 1880.3548583984375
-9999 -9999 -9999 -9999 -9999 -9999 -9999 -9999 1926.1968994140625 1926.197265625 1926.1976318359375 1926.197998046875 1926.1983642578125 1926.19873046875 1926.198974609375 1926.1993408203125 1926.19970703125 1926.2000732421875 1926.200439453125 1926.20068359375 1926.5511474609375 1928.4935302734375 1933.4290771484375 1937.5455322265625 1940.53564453125 1941.859619140625 1940.587158203125 1938.4180908203125 1936.8499755859375 1935.4283447265625 1934.961181640625 1934.4329833984375 1932.6240234375 1930.2547607421875 1929.272216796875 1930.37939453125 1930.0333251953125 1932.5106201171875 1935.986328125 1937.2489013671875 1938.4227294921875 1944.404052734375 1955.9412841796875 1963.873291015625 1969.592529296875 1981.4239501953125 1998.7567138671875 2011.0762939453125 2018.59228515625 2024.255615234375 2026.6082763671875 2021.524658203125 2013.920654296875 2008.487548828125 2002.770263671875 1994.595947265625 1986.20703125 1980.6602783203125 1973.20703125 1968.0345458984375 1968.765869140625 1968.581298828125 1966.5494384765625 1962.0084228515625 1960.1572265625 1958.7908935546875 1956.0384521484375 1950.6805419921875 1943.7725830078125 1942.695068359375 1941.6998291015625 1938.4796142578125 1934.3690185546875 1929.2977294921875 1923.3448486328125 1920.3289794921875 1920.4700927734375 1918.628173828125 1915.5489501953125 1912.19677734375 1908.2254638671875 1902.9849853515625 1901.3431396484375 1901.2802734375 1900.9085693359375 1899.1119384765625 1897.6102294921875 1896.57080078125 1894.4788818359375 1893.333251953125 1895.7696533203125 1896.870361328125 1893.8238525390625 1890.6270751953125 1890.6414794921875 1892.577880859375 1894.4786376953125 1893.5927734375 1890.22802734375 1888.350341796875 1889.340087890625 1889.231201171875 1887.400634765625 1889.78369140625 1887.927978515625 1885.154541015625 1885.3470458984375 1887.7431640625 1889.685546875 1890.76318359375 1891.5028076171875 1891.7415771484375 1892.1385498046875 1891.9351806640625 1893.1026611328125 1894.837646484375 1893.94873046875 1892.2691650390625 1890.5484619140625 1887.494140625 1882.9583740234375 1882.988037109375 1885.3094482421875 1885.6766357421875 1885.12939453125 1889.7943115234375 1893.273681640625 1893.7166748046875 1894.30029296875 1893.824462890625 1894.973388671875 1896.390869140625 1896.62939453125 1896.046142578125 1895.294677734375 1895.239501953125 1894.608642578125 1893.02001953125 1890.3250732421875 1889.6815185546875 1889.2412109375 1889.2808837890625 1890.7183837890625 1892.3450927734375 1891.9879150390625 1890.1583251953125 1887.37548828125 1882.060791015625 1880.43603515625 1879.0638427734375 1878.085693359375 1879.82861328125 1882.9779052734375 1883.5384521484375 1882.6346435546875 1880.4404296875 1879.458984375 1880.987548828125 1880.291259765625 1878.20166015625 1877.03271484375 1875.85595703125 1875.2052001953125 1875.213134765625 1874.5953369140625 1873.3912353515625 1872.4453125 1874.89990234375 1880.1112060546875 1882.4449462890625 1880.4010009765625 1878.0753173828125 1879.6580810546875 1882.197998046875 1884.37841796875 1887.2423095703125 1888.536865234375 1887.0870361328125 1883.957763671875 1882.4066162109375 1882.5194091796875 1883.2442626953125 1882.4813232421875 1880.4669189453125 1878.7244873046875 1876.649169921875 1877.19873046875 1879.7410888671875 1881.14404296875 1879.3201904296875 1876.319091796875 1873.857421875 1874.64404296875 1876.4835205078125 1877.2957763671875 1878.000732421875 1879.6015625 1880.8150634765625 1879.29443359375 1877.1322021484375 1875.8392333984375 1875.8251953125 1876.4659423828125 1877.25146484375 1876.6805419921875 1877.25537109375 1879.400146484375 1879.7823486328125 1879.69970703125 1880.887451171875 1882.8807373046875 1883.5081787109375
-9999 -9999 -9999 -9999 -9999 -9999 -9999 1926.1964111328125 1926.19677734375 1926.197021484375 1926.1973876953125 1926.19775390625 1926.1981201171875 1926.198486328125 1926.19873046875 1926.1990966796875 1926.199462890625 1926.1998291015625 1926.2001953125 1926.200439453125 1926.263916015625 1927.4112548828125 1932.349365234375 1936.0968017578125 1939.7637939453125 1940.898193359375 1939.958984375 1938.4617919921875 1936.334228515625 1934.5975341796875 1934.465087890625 1935.38916015625 1934.8428955078125 1931.7626953125 1929.9005126953125 1929.7659912109375 1930.486572265625 1933.8485107421875 1938.2142333984375 1939.1285400390625 1941.6229248046875 1950.8125 1960.225341796875 1965.7462158203125 1971.056640625 1980.616455078125 1998.2034912109375 2008.892578125 2018.5264892578125 2025.2705078125 2025.324462890625 2020.719482421875 2014.7996826171875 2009.105224609375 2002.5032958984375 1992.25634765625 1984.6802978515625 1982.1197509765625 1976.61083984375 1974.0552978515625 1974.1932373046875 1973.198974609375 1969.81591796875 1964.5498046875 1960.8245849609375 1958.4417724609375 1957.3968505859375 1954.63232421875 1948.4359130859375 1948.4185791015625 1946.976806640625 1943.007568359375 1938.7606201171875 1932.877685546875 1927.0673828125 1924.4088134765625 1922.435791015625 1918.4893798828125 1915.0421142578125 1911.2984619140625 1907.7650146484375 1904.240966796875 1903.286865234375 1904.3160400390625 1903.804443359375 1901.101806640625 1898.4923095703125 1896.986572265625 1895.2626953125 1893.9862060546875 1896.3525390625 1896.5947265625 1893.345458984375 1890.6851806640625 1890.2330322265625 1891.78173828125 1894.2181396484375 1894.3807373046875 1890.913818359375 1888.5242919921875 1888.539306640625 1888.112060546875 1887.54443359375 1889.397705078125 1889.2279052734375 1886.79296875 1888.668701171875 1892.129150390625 1893.734619140625 1893.7647705078125 1892.899658203125 1892.7218017578125 1891.8016357421875 1891.670166015625 1893.510986328125 1894.2640380859375 1892.6416015625 1890.887939453125 1889.8328857421875 1886.207763671875 1883.202880859375 1883.8997802734375 1885.54931640625 1884.439208984375 1884.5355224609375 1888.7281494140625 1892.0697021484375 1893.8690185546875 1895.3416748046875 1894.93017578125 1895.51904296875 1897.2635498046875 1897.7652587890625 1896.937255859375 1895.7691650390625 1895.6944580078125 1895.39990234375 1893.5352783203125 1891.2071533203125 1890.4427490234375 1889.495361328125 1889.120361328125 1891.0093994140625 1893.57421875 1893.6693115234375 1891.8004150390625 1887.7998046875 1882.48193359375 1881.2550048828125 1880.5662841796875 1879.5181884765625 1882.0330810546875 1885.12890625 1886.4437255859375 1886.097412109375 1882.690673828125 1881.01513671875 1881.8177490234375 1880.9156494140625 1878.3450927734375 1877.3328857421875 1877.2193603515625 1876.954833984375 1876.4215087890625 1875.5145263671875 1874.9688720703125 1876.5262451171875 1879.299560546875 1882.62060546875 1883.1300048828125 1880.68701171875 1878.3006591796875 1878.7462158203125 1880.5511474609375 1882.643798828125 1886.133544921875 1888.9638671875 1889.582275390625 1886.252197265625 1883.6724853515625 1882.343505859375 1882.948486328125 1883.0213623046875 1881.8455810546875 1879.8951416015625 1877.827880859375 1878.244140625 1880.0518798828125 1880.561279296875 1878.8428955078125 1877.0919189453125 1875.7110595703125 1875.8619384765625 1876.3912353515625 1876.687255859375 1877.6285400390625 1879.78759765625 1880.941650390625 1878.702880859375 1878.28125 1878.765869140625 1879.32666015625 1878.020751953125 1876.9722900390625 1876.251953125 1877.3526611328125 1879.48974609375 1880.6510009765625 1881.9376220703125 1884.0511474609375 1886.00634765625 1886.6015625
-9999 -9999 -9999 -9999 -9999 -9999 -9999 1926.1961669921875 1926.1964111328125 1926.19677734375 1926.1971435546875 1926.197509765625 1926.1978759765625 1926.1982421875 1926.198486328125 1926.1988525390625 1926.19921875 1926.1995849609375 1926.199951171875 1926.2001953125 1926.2203369140625 1927.5235595703125 1932.1029052734375 1935.612060546875 1939.183837890625 1940.296142578125 1939.135009765625 1936.86962890625 1935.140380859375 1934.262451171875 1934.949951171875 1936.2662353515625 1936.3165283203125 1934.1800537109375 1932.2498779296875 1930.72412109375 1930.747802734375 1935.18408203125 1941.1077880859375 1942.476806640625 1947.654052734375 1956.7049560546875 1961.6842041015625 1966.9443359375 1972.7835693359375 1982.3172607421875 1995.397216796875 2006.8382568359375 2017.8768310546875 2024.765625 2024.077392578125 2020.88037109375 2015.9764404296875 2009.0882568359375 1999.8995361328125 1989.68701171875 1984.092041015625 1982.5894775390625 1980.33251953125 1980.0478515625 1980.320068359375 1976.8511962890625 1973.66357421875 1968.9326171875 1965.42578125 1961.7864990234375 1960.87158203125 1958.193115234375 1954.26416015625 1954.026611328125 1951.9625244140625 1947.68017578125 1944.462890625 1938.547119140625 1933.5474853515625 1928.7464599609375 1923.545654296875 1918.5791015625 1914.0546875 1909.2210693359375 1906.417236328125 1904.92431640625 1904.9527587890625 1906.002685546875 1904.9437255859375 1901.97216796875 1898.82763671875 1897.5966796875 1896.2803955078125 1895.404296875 1896.6339111328125 1896.3291015625 1894.2425537109375 1892.2249755859375 1891.3582763671875 1892.02197265625 1893.502197265625 1894.3223876953125 1891.680908203125 1889.1727294921875 1889.066650390625 1888.83056640625 1888.2586669921875 1889.06591796875 1889.5626220703125 1889.44580078125 1892.8787841796875 1896.9637451171875 1897.57568359375 1895.66259765625 1894.735107421875 1893.55078125 1891.80517578125 1891.8599853515625 1893.1697998046875 1892.7711181640625 1890.5634765625 1890.39404296875 1890.1021728515625 1886.37255859375 1885.2552490234375 1886.1810302734375 1885.7451171875 1883.2318115234375 1883.394775390625 1886.2584228515625 1889.0709228515625 1891.9678955078125 1894.7218017578125 1893.8961181640625 1894.5968017578125 1896.26953125 1897.5521240234375 1897.6829833984375 1897.236083984375 1897.15673828125 1896.837158203125 1894.9356689453125 1892.6846923828125 1891.380126953125 1889.602783203125 1888.5648193359375 1890.883056640625 1893.860107421875 1893.701904296875 1890.8367919921875 1885.2904052734375 1881.115478515625 1881.4547119140625 1881.3179931640625 1880.9451904296875 1884.403076171875 1886.7022705078125 1889.3170166015625 1888.3421630859375 1886.425048828125 1885.703857421875 1885.2298583984375 1882.77490234375 1879.465576171875 1878.4930419921875 1878.6864013671875 1878.1129150390625 1878.212646484375 1876.967041015625 1877.386474609375 1878.978759765625 1880.1197509765625 1881.195556640625 1881.6943359375 1880.9150390625 1879.43212890625 1879.1517333984375 1880.49072265625 1883.4754638671875 1887.4127197265625 1889.770263671875 1890.059814453125 1887.7657470703125 1884.670166015625 1882.7305908203125 1882.844482421875 1883.7474365234375 1884.02001953125 1882.1683349609375 1879.231689453125 1879.22998046875 1880.3565673828125 1880.8323974609375 1880.1270751953125 1879.3619384765625 1878.4974365234375 1877.433349609375 1876.4564208984375 1875.908447265625 1877.6336669921875 1880.7650146484375 1881.1873779296875 1878.2420654296875 1878.8416748046875 1880.8519287109375 1881.4793701171875 1880.334716796875 1878.121337890625 1876.731689453125 1877.0718994140625 1878.5201416015625 1880.5379638671875 1882.831787109375 1885.65673828125 1886.9237060546875 1887.5595703125
-9999 -9999 -9999 -9999 -9999 -9999 -9999 1926.1959228515625 1926.1961669921875 1926.196533203125 1926.1968994140625 1926.197265625 1926.1976318359375 1926.1978759765625 1926.1982421875 1926.1986083984375 1926.198974609375 1926.1993408203125 1926.19970703125 1926.2000732421875 1926.200439453125 1929.7691650390625 1934.3837890625 1936.5167236328125 1939.2548828125 1940.2021484375 1938.7991943359375 1935.88525390625 1934.295654296875 1934.431396484375 1935.3243408203125 1935.7783203125 1935.9066162109375 1935.9376220703125 1935.1976318359375 1931.6641845703125 1929.58740234375 1936.2335205078125 1945.0277099609375 1948.159912109375 1952.99365234375 1958.9722900390625 1962.8853759765625 1968.7052001953125 1976.9962158203125 1985.8037109375 1995.2100830078125 2005.8988037109375 2016.9693603515625 2022.541015625 2023.0921630859375 2020.8812255859375 2015.63623046875 2007.760986328125 1998.728271484375 1990.474365234375 1985.8851318359375 1983.2889404296875 1982.8009033203125 1984.32177734375 1985.2764892578125 1980.9334716796875 1977.5882568359375 1975.9959716796875 1973.3333740234375 1969.0360107421875 1966.6256103515625 1963.61572265625 1961.4482421875 1962.1361083984375 1958.267822265625 1952.7484130859375 1949.2535400390625 1945.033935546875 1939.37890625 1931.7381591796875 1925.0849609375 1919.89453125 1913.41796875 1908.0606689453125 1906.916259765625 1905.3616943359375 1904.7772216796875 1905.1983642578125 1903.72119140625 1901.41650390625 1899.072509765625 1898.2069091796875 1896.6583251953125 1895.955810546875 1896.915283203125 1896.830322265625 1895.7078857421875 1893.43359375 1892.6556396484375 1891.558837890625 1891.36474609375 1892.0804443359375 1891.544677734375 1890.33544921875 1890.2550048828125 1890.081298828125 1889.404541015625 1889.2125244140625 1890.1776123046875 1892.310302734375 1895.68408203125 1898.9664306640625 1898.889892578125 1898.2899169921875 1897.2442626953125 1895.612548828125 1893.0396728515625 1892.1549072265625 1892.6385498046875 1890.9796142578125 1889.5926513671875 1891.184326171875 1890.9600830078125 1888.3436279296875 1887.8062744140625 1888.6202392578125 1887.1884765625 1884.447265625 1883.6103515625 1884.970458984375 1887.366455078125 1890.3409423828125 1893.6781005859375 1893.3082275390625 1893.88037109375 1895.350830078125 1897.10546875 1898.5399169921875 1898.8243408203125 1898.1328125 1897.3316650390625 1896.408935546875 1893.6375732421875 1891.3603515625 1889.8583984375 1888.90185546875 1890.162353515625 1892.7960205078125 1892.987060546875 1889.3272705078125 1883.14794921875 1880.7684326171875 1881.47509765625 1881.382568359375 1882.0673828125 1884.8861083984375 1889.0692138671875 1891.5980224609375 1891.03125 1890.225341796875 1890.0093994140625 1888.233154296875 1884.6444091796875 1882.177001953125 1880.9608154296875 1880.5045166015625 1879.6488037109375 1878.953369140625 1877.8038330078125 1877.936279296875 1878.494140625 1879.1107177734375 1879.680419921875 1880.512451171875 1881.6033935546875 1880.875 1879.6983642578125 1882.2210693359375 1886.314453125 1889.6014404296875 1890.7525634765625 1890.206298828125 1888.23486328125 1885.891357421875 1883.7120361328125 1883.3717041015625 1884.357421875 1885.1357421875 1882.39404296875 1879.74658203125 1879.5704345703125 1880.671875 1881.52392578125 1881.892333984375 1881.341796875 1880.7581787109375 1878.75927734375 1877.294189453125 1876.3621826171875 1878.090087890625 1880.7342529296875 1880.519287109375 1877.9534912109375 1877.880859375 1880.2769775390625 1881.525146484375 1881.367919921875 1879.3800048828125 1877.2552490234375 1876.4886474609375 1877.8544921875 1880.1751708984375 1882.4097900390625 1884.3526611328125 1885.0335693359375 1885.48291015625
-9999 -9999 -9999 -9999 -9999 -9999 -9999 1926.1956787109375 1926.1959228515625 1926.1962890625 1926.1966552734375 1926.197021484375 1926.1973876953125 1926.19775390625 1926.1981201171875 1926.198486328125 1926.19873046875 1926.1990966796875 1926.199462890625 1926.1998291015625 1926.2001953125 1932.467041015625 1936.747314453125 1937.0416259765625 1938.0638427734375 1938.656494140625 1938.9349365234375 1936.5611572265625 1934.2236328125 1935.00830078125 1935.1221923828125 1933.709716796875 1933.7796630859375 1935.3765869140625 1935.6478271484375 1930.229248046875 1928.609619140625 1937.771728515625 1948.236572265625 1952.1177978515625 1956.123046875 1960.3424072265625 1963.9884033203125 1970.74755859375 1979.0875244140625 1987.684814453125 1995.4349365234375 2005.8699951171875 2015.5311279296875 2020.7755126953125 2023.270263671875 2021.614501953125 2015.8460693359375 2007.90576171875 2000.835693359375 1995.4276123046875 1990.2039794921875 1987.071533203125 1987.24609375 1988.808837890625 1988.90185546875 1985.3792724609375 1982.748046875 1982.1888427734375 1980.729736328125 1976.850830078125 1974.41552734375 1972.3507080078125 1969.8406982421875 1970.5294189453125 1966.455322265625 1959.788330078125 1955.060302734375 1950.1724853515625 1942.33642578125 1933.7015380859375 1927.5262451171875 1922.441650390625 1914.22265625 1909.0850830078125 1908.8726806640625 1905.2249755859375 1902.831787109375 1902.5311279296875 1901.3973388671875 1899.51904296875 1898.783935546875 1898.58984375 1897.828857421875 1896.369384765625 1896.6826171875 1896.798828125 1895.9683837890625 1894.4337158203125 1892.7666015625 1891.28076171875 1890.2447509765625 1891.054443359375 1893.22021484375 1893.3994140625 1891.6876220703125 1890.8524169921875 1889.878173828125 1889.2734375 1890.1669921875 1892.747314453125 1895.1773681640625 1897.1337890625 1898.252685546875 1899.419921875 1899.4630126953125 1897.697021484375 1894.4508056640625 1892.2100830078125 1891.66845703125 1890.5233154296875 1890.7733154296875 1892.2744140625 1892.00439453125 1890.5855712890625 1890.0960693359375 1890.586669921875 1889.22509765625 1886.2900390625 1884.5010986328125 1884.78125 1887.2906494140625 1890.6419677734375 1893.145751953125 1893.9117431640625 1894.3115234375 1895.1358642578125 1896.49462890625 1898.81640625 1898.1068115234375 1897.3040771484375 1896.6605224609375 1896.473388671875 1894.188232421875 1891.60595703125 1889.789306640625 1888.978759765625 1889.16943359375 1891.1455078125 1892.09912109375 1888.802001953125 1885.092529296875 1883.2786865234375 1882.9178466796875 1882.0535888671875 1882.4508056640625 1886.1905517578125 1891.1517333984375 1893.5679931640625 1892.2225341796875 1890.502685546875 1889.828857421875 1887.75 1885.7659912109375 1884.98974609375 1883.85498046875 1882.24169921875 1880.5858154296875 1879.44189453125 1877.837646484375 1876.956787109375 1877.3389892578125 1878.4532470703125 1879.236328125 1880.3885498046875 1882.364501953125 1882.1629638671875 1881.1480712890625 1883.3753662109375 1887.6435546875 1890.5777587890625 1891.305419921875 1890.2430419921875 1888.440673828125 1886.7022705078125 1884.98779296875 1884.5025634765625 1885.4503173828125 1884.4326171875 1881.35009765625 1879.4951171875 1879.9110107421875 1881.337158203125 1882.4664306640625 1882.825439453125 1881.9918212890625 1881.841064453125 1880.2406005859375 1879.4063720703125 1878.981689453125 1879.9129638671875 1881.363037109375 1880.2801513671875 1877.454833984375 1877.0364990234375 1878.8115234375 1879.5599365234375 1880.3724365234375 1879.31201171875 1877.03759765625 1876.55419921875 1878.036865234375 1880.3955078125 1882.19140625 1882.0533447265625 1881.64013671875 1881.5445556640625
-9999 -9999 -9999 -9999 -9999 -9999 1926.1951904296875 1926.1954345703125 1926.19580078125 1926.196044921875 1926.1964111328125 1926.19677734375 1926.1971435546875 1926.197509765625 1926.1978759765625 1926.1982421875 1926.1986083984375 1926.198974609375 1926.1993408203125 1926.19970703125 1926.199951171875 1931.0458984375 1936.230712890625 1936.1302490234375 1936.0484619140625 1937.7044677734375 1939.8563232421875 1937.19580078125 1933.9876708984375 1935.2275390625 1934.42236328125 1931.611328125 1931.164794921875 1933.3602294921875 1932.6533203125 1928.6815185546875 1930.3720703125 1938.46728515625 1947.4205322265625 1952.770751953125 1956.2061767578125 1959.881591796875 1964.344482421875 1971.3782958984375 1978.308837890625 1986.9986572265625 1995.8203125 2005.9293212890625 2015.60400390625 2021.8167724609375 2023.9287109375 2022.74951171875 2017.7413330078125 2010.1209716796875 2003.997314453125 2001.1041259765625 1997.5064697265625 1996.404296875 1994.73876953125 1994.23876953125 1992.3939208984375 1989.7655029296875 1989.0040283203125 1988.4393310546875 1986.672119140625 1983.6112060546875 1982.457275390625 1980.60791015625 1977.6175537109375 1977.8009033203125 1975.1392822265625 1968.7584228515625 1962.5145263671875 1955.182373046875 1946.10009765625 1937.4180908203125 1930.837890625 1925.196533203125 1917.0438232421875 1911.843994140625 1909.8436279296875 1904.4154052734375 1900.365966796875 1899.9403076171875 1898.674560546875 1897.0927734375 1897.258056640625 1898.5853271484375 1898.128173828125 1897.070068359375 1895.80322265625 1896.0927734375 1895.79052734375 1894.5186767578125 1892.8087158203125 1891.52197265625 1891.5225830078125 1892.7547607421875 1896.3182373046875 1895.96142578125 1892.7056884765625 1890.056396484375 1888.895263671875 1888.130859375 1888.9256591796875 1891.01025390625 1893.328857421875 1894.5966796875 1896.54052734375 1899.073486328125 1899.22509765625 1896.8671875 1894.0880126953125 1892.196533203125 1891.70361328125 1891.2156982421875 1892.104248046875 1893.44775390625 1893.160888671875 1892.05712890625 1891.89794921875 1891.8203125 1890.2696533203125 1886.7933349609375 1885.1636962890625 1886.110595703125 1889.0552978515625 1891.8240966796875 1893.6463623046875 1894.725830078125 1895.4454345703125 1894.750732421875 1895.49267578125 1896.74609375 1896.08935546875 1895.106201171875 1895.0089111328125 1895.738525390625 1894.673828125 1891.8741455078125 1890.0550537109375 1889.65966796875 1888.44677734375 1888.877685546875 1890.899169921875 1890.1640625 1889.2696533203125 1887.505859375 1885.963134765625 1884.415771484375 1885.1678466796875 1888.457763671875 1891.614990234375 1892.4232177734375 1889.5948486328125 1887.5865478515625 1887.4671630859375 1886.83203125 1886.47705078125 1886.7420654296875 1885.324462890625 1882.1461181640625 1880.4586181640625 1879.9112548828125 1877.8890380859375 1876.587646484375 1877.548583984375 1879.0146484375 1879.2315673828125 1880.1656494140625 1882.6971435546875 1883.302734375 1882.4981689453125 1884.0281982421875 1887.317626953125 1890.4635009765625 1891.8546142578125 1890.7254638671875 1888.8865966796875 1887.0582275390625 1885.646728515625 1886.15771484375 1886.5260009765625 1884.79638671875 1881.794189453125 1880.3118896484375 1880.742919921875 1882.6588134765625 1882.8594970703125 1882.05859375 1881.3052978515625 1880.9913330078125 1880.8355712890625 1881.0640869140625 1881.3426513671875 1881.68115234375 1882.1422119140625 1879.9716796875 1877.2470703125 1875.849853515625 1877.0570068359375 1877.4619140625 1878.27099609375 1877.932373046875 1876.74072265625 1876.197021484375 1878.062744140625 1881.427490234375 1883.183349609375 1882.197509765625 1880.2154541015625 1879.4781494140625
-9999 -9999 -9999 -9999 -9999 -9999 1926.19482421875 1926.1951904296875 1926.195556640625 1926.1959228515625 1926.1962890625 1926.1966552734375 1926.197021484375 1926.1973876953125 1926.19775390625 1926.197998046875 1926.1983642578125 1926.19873046875 1926.1990966796875 1926.199462890625 1926.19970703125 1928.4072265625 1933.193603515625 1934.1695556640625 1934.5487060546875 1938.8126220703125 1942.6405029296875 1939.376953125 1934.4415283203125 1934.7529296875 1933.8397216796875 1931.17626953125 1930.6446533203125 1931.908203125 1931.10595703125 1931.1260986328125 1934.46337890625 1939.12451171875 1946.8089599609375 1952.1180419921875 1955.6474609375 1959.5965576171875 1965.0638427734375 1970.6038818359375 1977.7449951171875 1985.6802978515625 1994.967041015625 2006.4630126953125 2018.378662109375 2024.1927490234375 2025.032958984375 2023.7393798828125 2020.902587890625 2014.557373046875 2008.56689453125 2006.7510986328125 2007.7501220703125 2006.36474609375 2002.172607421875 1999.8497314453125 1996.2611083984375 1995.542724609375 1997.235595703125 1996.1851806640625 1994.005859375 1991.58544921875 1989.265869140625 1985.9429931640625 1984.0855712890625 1984.605224609375 1983.242919921875 1976.1634521484375 1968.58154296875 1960.8758544921875 1950.9820556640625 1942.181396484375 1933.783447265625 1926.1214599609375 1919.6004638671875 1914.54150390625 1910.7659912109375 1904.420166015625 1899.7220458984375 1899.1611328125 1897.227783203125 1895.4912109375 1895.328369140625 1896.91943359375 1897.2037353515625 1895.72607421875 1894.6494140625 1895.7041015625 1895.479736328125 1893.543701171875 1891.9901123046875 1891.473876953125 1893.87060546875 1895.36767578125 1896.483642578125 1895.03857421875 1891.8201904296875 1888.8935546875 1886.8363037109375 1886.6566162109375 1888.0496826171875 1889.69775390625 1892.5206298828125 1893.881591796875 1895.9931640625 1897.048583984375 1896.259765625 1894.365234375 1892.9847412109375 1893.159423828125 1892.65966796875 1892.061279296875 1893.0479736328125 1894.193603515625 1893.75537109375 1892.222900390625 1892.8897705078125 1892.264892578125 1889.7474365234375 1886.3399658203125 1885.6385498046875 1887.88134765625 1889.9346923828125 1892.2987060546875 1893.713623046875 1894.43115234375 1894.3126220703125 1892.8134765625 1893.198486328125 1894.0328369140625 1893.9559326171875 1893.44775390625 1893.664306640625 1894.6378173828125 1893.693115234375 1891.3907470703125 1889.78759765625 1889.7119140625 1888.06494140625 1887.9447021484375 1889.9622802734375 1891.4326171875 1891.4517822265625 1890.28564453125 1888.8646240234375 1889.026123046875 1890.190673828125 1890.6724853515625 1890.7940673828125 1890.079345703125 1887.4515380859375 1886.7467041015625 1888.01953125 1887.9140625 1887.607177734375 1887.349365234375 1884.760009765625 1880.79150390625 1879.63037109375 1880.1058349609375 1878.3895263671875 1877.559814453125 1878.954833984375 1879.613525390625 1878.2808837890625 1879.01904296875 1882.3548583984375 1883.84765625 1884.231201171875 1885.3623046875 1887.448974609375 1889.2200927734375 1891.095458984375 1890.9013671875 1889.4771728515625 1887.5809326171875 1886.4344482421875 1887.3565673828125 1887.9964599609375 1886.2935791015625 1883.983154296875 1882.2109375 1882.3377685546875 1882.6439208984375 1881.8306884765625 1880.7388916015625 1880.1644287109375 1879.9788818359375 1880.196533203125 1881.6278076171875 1882.21142578125 1882.775634765625 1882.1375732421875 1879.7774658203125 1877.071044921875 1875.7967529296875 1875.761962890625 1875.9029541015625 1876.9931640625 1877.2908935546875 1876.025146484375 1874.9466552734375 1877.8819580078125 1882.384521484375 1885.224609375 1884.5135498046875 1882.323974609375 1881.636962890625
-9999 -9999 -9999 -9999 -9999 -9999 1926.194580078125 1926.1949462890625 1926.1954345703125 1926.1956787109375 1926.196044921875 1926.1964111328125 1926.19677734375 1926.1971435546875 1926.197509765625 1926.19775390625 1926.1981201171875 1926.198486328125 1926.1988525390625 1926.19921875 1926.1995849609375 1926.90966796875 1930.8763427734375 1932.59814453125 1934.37060546875 1940.570068359375 1946.065673828125 1942.1790771484375 1935.968994140625 1934.2255859375 1933.58349609375 1931.7215576171875 1931.6796875 1932.9771728515625 1933.19873046875 1935.0166015625 1938.5926513671875 1940.9794921875 1946.7384033203125 1952.7347412109375 1956.60546875 1961.61962890625 1965.656005859375 1970.147705078125 1976.8212890625 1984.85693359375 1993.6136474609375 2007.6866455078125 2022.055419921875 2027.119873046875 2026.49560546875 2026.260986328125 2025.3834228515625 2020.814208984375 2016.4183349609375 2016.3070068359375 2017.8406982421875 2014.7452392578125 2009.8917236328125 2006.6533203125 2002.4449462890625 2003.042236328125 2005.1944580078125 2005.17919921875 2001.9580078125 1999.230224609375 1996.1842041015625 1991.665283203125 1990.7093505859375 1990.88330078125 1988.1734619140625 1981.4697265625 1974.1639404296875 1965.7738037109375 1955.7987060546875 1945.4434814453125 1934.7711181640625 1926.523681640625 1921.8577880859375 1917.146728515625 1912.2947998046875 1906.853271484375 1903.117431640625 1901.638916015625 1898.884521484375 1895.595703125 1894.2047119140625 1895.1689453125 1894.79638671875 1893.0760498046875 1893.2574462890625 1895.3760986328125 1894.6500244140625 1892.213134765625 1891.992919921875 1893.0882568359375 1895.377197265625 1896.2257080078125 1894.9482421875 1892.9163818359375 1890.76611328125 1887.315185546875 1884.962890625 1886.2200927734375 1888.546142578125 1890.6553955078125 1893.8653564453125 1895.2728271484375 1895.75830078125 1895.8272705078125 1894.3487548828125 1893.0316162109375 1893.689453125 1894.4227294921875 1893.928466796875 1893.4609375 1893.775146484375 1893.920166015625 1892.60888671875 1891.9373779296875 1892.6827392578125 1892.11328125 1889.5302734375 1886.0721435546875 1885.548095703125 1888.619384765625 1888.9613037109375 1891.14990234375 1892.1134033203125 1892.7381591796875 1891.52099609375 1889.9437255859375 1890.2001953125 1891.67724609375 1892.5767822265625 1892.8421630859375 1893.08349609375 1892.74072265625 1892.112060546875 1888.85888671875 1887.756591796875 1888.2393798828125 1887.6927490234375 1888.1514892578125 1890.3887939453125 1891.5396728515625 1891.3592529296875 1891.5692138671875 1891.3306884765625 1892.859375 1893.7056884765625 1892.1148681640625 1890.6204833984375 1889.265625 1888.0770263671875 1887.910400390625 1888.8033447265625 1889.3497314453125 1887.9190673828125 1886.9420166015625 1883.83935546875 1880.052001953125 1879.5316162109375 1880.01123046875 1878.978271484375 1878.635986328125 1879.6202392578125 1878.8028564453125 1877.196533203125 1877.228515625 1881.8206787109375 1884.3939208984375 1886.023681640625 1887.339111328125 1887.6842041015625 1888.5777587890625 1889.7982177734375 1890.13232421875 1889.1197509765625 1887.5001220703125 1886.8809814453125 1888.681640625 1889.463134765625 1888.599853515625 1886.7579345703125 1884.83447265625 1883.0345458984375 1881.8074951171875 1880.905517578125 1880.0963134765625 1880.537109375 1880.01220703125 1880.0689697265625 1881.51806640625 1882.4111328125 1883.0032958984375 1881.76220703125 1879.5838623046875 1877.4227294921875 1876.4837646484375 1875.4814453125 1875.516845703125 1877.0439453125 1876.6578369140625 1874.7486572265625 1874.8486328125 1878.9100341796875 1882.60595703125 1885.173095703125 1886.6688232421875 1885.640380859375 1885.7801513671875
-9999 -9999 -9999 -9999 -9999 -9999 1926.1944580078125 1926.19482421875 1926.1951904296875 1926.195556640625 1926.19580078125 1926.1961669921875 1926.196533203125 1926.1968994140625 1926.197265625 1926.1976318359375 1926.1978759765625 1926.1982421875 1926.1986083984375 1926.198974609375 1926.1993408203125 1926.1995849609375 1928.961669921875 1932.1607666015625 1936.0482177734375 1941.425537109375 1946.9844970703125 1943.6961669921875 1937.1021728515625 1934.197998046875 1932.9053955078125 1932.4599609375 1933.4224853515625 1935.696533203125 1935.207763671875 1936.6021728515625 1939.6522216796875 1942.6669921875 1947.8778076171875 1952.8743896484375 1957.575927734375 1962.923828125 1966.6807861328125 1969.8193359375 1976.4027099609375 1985.1407470703125 1995.126708984375 2008.25 2022.915283203125 2027.5491943359375 2028.7423095703125 2029.755615234375 2030.5595703125 2030.0665283203125 2029.30615234375 2027.784912109375 2026.3450927734375 2022.9718017578125 2018.5196533203125 2014.279052734375 2009.744873046875 2010.0330810546875 2014.0255126953125 2016.015625 2010.9635009765625 2006.7540283203125 2003.0106201171875 2000.3248291015625 1997.549072265625 1995.1005859375 1990.8006591796875 1985.15234375 1978.4091796875 1969.3189697265625 1957.942138671875 1947.0233154296875 1936.1663818359375 1930.638916015625 1925.961669921875 1919.9217529296875 1913.782958984375 1910.1815185546875 1907.65771484375 1904.7713623046875 1900.6993408203125 1896.1973876953125 1894.3504638671875 1895.1036376953125 1893.934326171875 1891.5316162109375 1892.7120361328125 1896.0816650390625 1895.477294921875 1893.5404052734375 1893.77734375 1895.03857421875 1896.07666015625 1895.9532470703125 1893.873779296875 1891.4688720703125 1889.50537109375 1886.0972900390625 1884.8760986328125 1887.10693359375 1890.112548828125 1893.3095703125 1895.933837890625 1896.1741943359375 1895.512451171875 1895.271240234375 1894.4591064453125 1893.9378662109375 1895.581787109375 1896.07568359375 1895.64453125 1895.21337890625 1894.543212890625 1893.2152099609375 1891.678955078125 1891.4945068359375 1891.82080078125 1892.21044921875 1890.249755859375 1886.7161865234375 1885.822509765625 1887.142822265625 1888.6064453125 1890.1929931640625 1890.6932373046875 1890.78857421875 1889.9508056640625 1888.5560302734375 1887.8494873046875 1889.3748779296875 1891.473388671875 1892.111328125 1892.0469970703125 1891.2550048828125 1888.912109375 1885.298583984375 1884.4140625 1885.9486083984375 1887.1636962890625 1888.5721435546875 1890.9044189453125 1890.22216796875 1890.5670166015625 1891.78271484375 1892.66552734375 1894.1954345703125 1894.236328125 1892.08740234375 1890.915771484375 1889.7796630859375 1888.40869140625 1887.436767578125 1887.2984619140625 1887.893310546875 1886.6094970703125 1885.653564453125 1883.003662109375 1880.3380126953125 1880.16455078125 1880.4725341796875 1880.1085205078125 1879.315185546875 1879.248046875 1878.2061767578125 1875.8607177734375 1875.830078125 1881.476806640625 1885.0487060546875 1887.5673828125 1888.229248046875 1888.166259765625 1887.8494873046875 1888.7430419921875 1889.1357421875 1887.4482421875 1886.63134765625 1887.617919921875 1889.5943603515625 1890.2635498046875 1889.623046875 1888.6461181640625 1886.138916015625 1883.0335693359375 1881.442138671875 1881.0216064453125 1881.302734375 1882.136962890625 1881.007080078125 1879.6328125 1881.1708984375 1882.692138671875 1882.7218017578125 1882.2197265625 1880.43505859375 1879.09130859375 1878.0318603515625 1875.60107421875 1876.2620849609375 1877.206298828125 1876.5120849609375 1875.3209228515625 1877.0992431640625 1881.0826416015625 1881.8577880859375 1884.411865234375 1887.40283203125 1888.9892578125 1893.865966796875
-9999 -9999 -9999 -9999 -9999 1926.1939697265625 1926.1942138671875 1926.194580078125 1926.1949462890625 1926.1953125 1926.195556640625 1926.1959228515625 1926.1962890625 1926.1966552734375 1926.197021484375 1926.1973876953125 1926.1976318359375 1926.197998046875 1926.1983642578125 1926.19873046875 1926.1990966796875 1926.3826904296875 1927.9737548828125 1932.4959716796875 1938.835205078125 1944.1563720703125 1947.6727294921875 1944.932861328125 1938.671630859375 1932.87646484375 1931.5509033203125 1931.12158203125 1934.1544189453125 1937.896240234375 1936.8739013671875 1937.6697998046875 1940.5555419921875 1944.6700439453125 1950.4031982421875 1956.057861328125 1957.97802734375 1962.260986328125 1967.1282958984375 1969.7572021484375 1975.306396484375 1986.4599609375 1997.1243896484375 2006.904541015625 2018.82421875 2026.6644287109375 2030.9473876953125 2033.7225341796875 2039.1678466796875 2041.497314453125 2041.3782958984375 2037.8768310546875 2034.1151123046875 2031.319580078125 2028.9224853515625 2024.253173828125 2017.6243896484375 2015.630615234375 2020.8634033203125 2026.3780517578125 2020.106689453125 2016.5257568359375 2012.5718994140625 2008.3955078125 2004.0870361328125 1999.111083984375 1993.076416015625 1986.567138671875 1978.82421875 1969.670654296875 1958.45654296875 1948.8212890625 1941.6270751953125 1937.080322265625 1930.1973876953125 1922.3812255859375 1916.2786865234375 1912.912841796875 1909.9368896484375 1905.49951171875 1900.844970703125 1897.022705078125 1896.568115234375 1896.884521484375 1895.5341796875 1894.318359375 1896.1767578125 1898.94140625 1898.289306640625 1897.1407470703125 1898.023193359375 1896.961181640625 1896.2591552734375 1895.42724609375 1894.119384765625 1892.5506591796875 1889.919677734375 1886.423095703125 1886.154541015625 1888.78662109375 1891.8406982421875 1894.9188232421875 1896.7781982421875 1895.4561767578125 1894.3955078125 1895.90380859375 1895.9676513671875 1895.952392578125 1897.533447265625 1897.40771484375 1896.4822998046875 1896.027099609375 1894.689697265625 1893.341552734375 1892.623779296875 1891.7027587890625 1891.2894287109375 1892.2015380859375 1891.7252197265625 1889.4776611328125 1886.8536376953125 1886.562744140625 1890.2362060546875 1892.3360595703125 1890.6920166015625 1890.190673828125 1890.4119873046875 1890.7420654296875 1888.6065673828125 1888.950439453125 1890.4937744140625 1892.093994140625 1892.9295654296875 1891.0986328125 1886.8450927734375 1883.122314453125 1882.382080078125 1886.1063232421875 1887.792724609375 1888.6871337890625 1889.90234375 1889.38671875 1890.2750244140625 1891.9532470703125 1893.5068359375 1895.59326171875 1895.0765380859375 1893.1258544921875 1891.622802734375 1890.1708984375 1887.88037109375 1885.326904296875 1884.1591796875 1884.5538330078125 1884.7305908203125 1883.9036865234375 1882.450439453125 1880.5865478515625 1881.0938720703125 1882.12841796875 1880.220458984375 1879.24755859375 1879.1082763671875 1876.9071044921875 1872.4534912109375 1872.7857666015625 1879.883056640625 1886.44287109375 1889.7850341796875 1890.55810546875 1888.9384765625 1888.01953125 1888.2686767578125 1888.0963134765625 1886.9674072265625 1886.4317626953125 1887.7353515625 1890.1348876953125 1890.0025634765625 1889.3448486328125 1889.6168212890625 1886.739990234375 1883.2698974609375 1882.1204833984375 1882.6971435546875 1883.785888671875 1883.7686767578125 1881.279541015625 1880.12158203125 1881.514892578125 1883.177734375 1882.4532470703125 1879.9473876953125 1880.251953125 1880.170166015625 1878.9097900390625 1877.2320556640625 1877.3740234375 1878.053466796875 1877.934326171875 1878.74169921875 1881.1212158203125 1883.7930908203125 1882.798095703125 1884.2552490234375 1889.4443359375 1891.930908203125 1894.220703125
-9999 -9999 -9999 -9999 -9999 1926.193603515625 1926.1939697265625 1926.1943359375 1926.1947021484375 1926.195068359375 1926.1954345703125 1926.1956787109375 1926.196044921875 1926.1964111328125 1926.19677734375 1926.1971435546875 1926.1973876953125 1926.19775390625 1926.1981201171875 1926.198486328125 1926.1988525390625 1926.6641845703125 1927.6302490234375 1931.415283203125 1937.6484375 1943.1915283203125 1947.1700439453125 1944.8963623046875 1940.36328125 1933.373291015625 1928.6160888671875 1927.47119140625 1932.1744384765625 1936.104736328125 1937.6053466796875 1939.0682373046875 1943.46923828125 1947.7874755859375 1955.2322998046875 1958.214599609375 1958.401611328125 1961.501220703125 1965.500244140625 1969.0074462890625 1975.0224609375 1986.885986328125 1997.0938720703125 2006.2532958984375 2017.1016845703125 2027.4384765625 2035.2027587890625 2041.25390625 2048.2216796875 2052.298828125 2050.69580078125 2046.4351806640625 2042.4261474609375 2041.9556884765625 2040.8826904296875 2037.203857421875 2027.8033447265625 2024.673828125 2029.394287109375 2033.410888671875 2031.4095458984375 2026.720947265625 2021.61279296875 2016.699462890625 2011.4609375 2004.0697021484375 1996.3304443359375 1988.1241455078125 1978.648193359375 1969.976318359375 1959.908935546875 1952.3848876953125 1946.3909912109375 1941.6756591796875 1933.9490966796875 1925.11328125 1917.854736328125 1914.927490234375 1911.7587890625 1905.406982421875 1899.0023193359375 1896.9359130859375 1898.221435546875 1898.142578125 1898.6485595703125 1898.2047119140625 1899.6497802734375 1901.313720703125 1901.242919921875 1900.0013427734375 1899.8876953125 1897.9591064453125 1896.224853515625 1896.22509765625 1895.502197265625 1893.981201171875 1890.779541015625 1887.4072265625 1886.2431640625 1887.7215576171875 1891.874267578125 1894.9244384765625 1896.3309326171875 1895.9266357421875 1895.4576416015625 1897.38916015625 1897.4908447265625 1897.3721923828125 1897.6448974609375 1896.047119140625 1895.8985595703125 1895.3087158203125 1893.2913818359375 1892.62890625 1893.6602783203125 1892.4830322265625 1891.2564697265625 1891.3660888671875 1892.2803955078125 1892.154541015625 1890.867431640625 1890.8681640625 1894.1590576171875 1893.809814453125 1891.517333984375 1890.6832275390625 1892.341552734375 1892.455810546875 1890.7835693359375 1889.7935791015625 1891.127197265625 1893.4918212890625 1893.869140625 1891.00390625 1887.51904296875 1885.3145751953125 1886.691162109375 1889.6209716796875 1890.368896484375 1889.30224609375 1888.8450927734375 1889.6558837890625 1890.7706298828125 1892.8043212890625 1894.076171875 1895.369873046875 1895.802734375 1894.30126953125 1891.7823486328125 1889.91162109375 1887.7615966796875 1884.54296875 1882.6910400390625 1883.0252685546875 1884.74853515625 1885.2060546875 1883.2274169921875 1880.9803466796875 1881.0029296875 1879.0382080078125 1877.1671142578125 1877.896484375 1878.9251708984375 1876.8485107421875 1869.301025390625 1869.2208251953125 1879.1754150390625 1887.618408203125 1891.9832763671875 1891.7418212890625 1890.0279541015625 1889.1077880859375 1888.6368408203125 1888.93603515625 1888.1500244140625 1886.8514404296875 1886.825439453125 1888.3045654296875 1887.9345703125 1888.291015625 1889.7215576171875 1886.92529296875 1884.898681640625 1884.5140380859375 1885.420166015625 1886.1800537109375 1884.2977294921875 1880.428466796875 1879.7012939453125 1881.7423095703125 1884.2470703125 1882.140869140625 1880.5577392578125 1880.3790283203125 1880.0521240234375 1878.3287353515625 1878.589599609375 1879.7080078125 1879.8668212890625 1879.3165283203125 1880.97412109375 1882.9736328125 1885.869140625 1886.2784423828125 1888.086669921875 1889.3707275390625 1889.365478515625 1888.3929443359375
-9999 -9999 -9999 -9999 -9999 1926.193359375 1926.1937255859375 1926.194091796875 1926.1944580078125 1926.19482421875 1926.1951904296875 1926.1954345703125 1926.19580078125 1926.1961669921875 1926.196533203125 1926.1968994140625 1926.197265625 1926.197509765625 1926.1978759765625 1926.1982421875 1926.1986083984375 1926.94580078125 1927.2977294921875 1931.9888916015625 1936.9898681640625 1940.8094482421875 1943.455322265625 1942.6578369140625 1939.8094482421875 1933.8460693359375 1927.1282958984375 1923.3370361328125 1929.9298095703125 1936.4361572265625 1938.9776611328125 1940.47705078125 1945.5413818359375 1949.892822265625 1955.096435546875 1958.0701904296875 1960.724609375 1964.2982177734375 1967.593505859375 1970.0498046875 1974.8861083984375 1986.67431640625 1998.249755859375 2007.4427490234375 2018.9368896484375 2030.38916015625 2040.0390625 2048.106689453125 2055.887451171875 2060.008056640625 2059.142578125 2056.453857421875 2055.958984375 2053.79248046875 2052.222900390625 2046.2984619140625 2039.2362060546875 2037.7130126953125 2040.5006103515625 2041.892578125 2040.5867919921875 2036.7562255859375 2031.667236328125 2025.75927734375 2019.806640625 2009.1746826171875 2000.008056640625 1990.247802734375 1980.7408447265625 1972.1468505859375 1964.0650634765625 1956.2398681640625 1949.6495361328125 1943.6318359375 1933.509521484375 1925.053466796875 1919.3609619140625 1917.4981689453125 1915.0113525390625 1908.72802734375 1901.832763671875 1899.319580078125 1899.0836181640625 1897.5584716796875 1897.53759765625 1899.5621337890625 1900.76416015625 1901.8416748046875 1900.9818115234375 1899.4810791015625 1899.394287109375 1897.857177734375 1896.224609375 1896.2249755859375 1896.002685546875 1894.2479248046875 1890.8221435546875 1889.3101806640625 1887.8326416015625 1888.0616455078125 1891.09130859375 1894.7926025390625 1897.1658935546875 1896.81982421875 1897.078369140625 1899.4698486328125 1899.7867431640625 1899.0411376953125 1896.7705078125 1895.08740234375 1895.2515869140625 1894.4766845703125 1891.608642578125 1892.1953125 1893.853515625 1893.282470703125 1890.9793701171875 1890.019775390625 1891.4979248046875 1895.7098388671875 1897.502685546875 1895.34033203125 1894.4342041015625 1893.402587890625 1891.947265625 1891.668701171875 1892.7718505859375 1893.2362060546875 1892.2763671875 1891.1895751953125 1892.1109619140625 1892.864013671875 1892.1131591796875 1889.5325927734375 1887.8447265625 1887.5655517578125 1890.7061767578125 1894.36181640625 1894.5247802734375 1892.3614501953125 1890.2332763671875 1891.112060546875 1891.8321533203125 1893.241455078125 1893.5167236328125 1894.8226318359375 1895.31591796875 1893.6131591796875 1891.2047119140625 1889.6417236328125 1887.975830078125 1885.41650390625 1883.5445556640625 1884.1416015625 1887.5296630859375 1888.558349609375 1885.68212890625 1883.2681884765625 1880.2293701171875 1875.002197265625 1873.3681640625 1875.3712158203125 1877.7939453125 1877.0401611328125 1871.16064453125 1869.23681640625 1877.9788818359375 1886.374267578125 1890.3646240234375 1891.0758056640625 1890.6248779296875 1889.0955810546875 1888.9180908203125 1890.1922607421875 1890.0631103515625 1887.7586669921875 1885.303955078125 1885.860107421875 1885.84765625 1887.4207763671875 1888.6444091796875 1887.19775390625 1885.9327392578125 1886.9803466796875 1888.11767578125 1887.4501953125 1884.29541015625 1879.844482421875 1879.419677734375 1881.6302490234375 1884.495849609375 1884.3687744140625 1883.1207275390625 1881.999267578125 1880.179443359375 1877.142578125 1880.1435546875 1882.8221435546875 1881.7022705078125 1879.466796875 1881.6126708984375 1883.9058837890625 1887.231689453125 1890.368408203125 1890.55029296875 1888.6064453125 1885.7177734375 1881.2210693359375
-9999 -9999 -9999 -9999 1926.1929931640625 1926.193115234375 1926.1934814453125 1926.19384765625 1926.1942138671875 1926.194580078125 1926.1949462890625 1926.1951904296875 1926.195556640625 1926.1959228515625 1926.1962890625 1926.1966552734375 1926.197021484375 1926.197265625 1926.1976318359375 1926.197998046875 1926.1983642578125 1927.3719482421875 1929.5792236328125 1934.2476806640625 1937.396240234375 1939.570068359375 1941.154541015625 1940.4351806640625 1938.4241943359375 1934.1954345703125 1930.168212890625 1928.872802734375 1933.758544921875 1938.508544921875 1940.824462890625 1942.2532958984375 1945.8331298828125 1950.4083251953125 1954.674072265625 1958.2867431640625 1962.89111328125 1969.718505859375 1970.836669921875 1971.9498291015625 1976.202392578125 1986.4892578125 1998.640380859375 2009.887939453125 2022.235595703125 2032.7794189453125 2043.89404296875 2054.08935546875 2060.900634765625 2066.350830078125 2069.069091796875 2068.3896484375 2068.869873046875 2064.842041015625 2060.69189453125 2055.246826171875 2050.592529296875 2051.461669921875 2054.486083984375 2053.834228515625 2051.068115234375 2046.66015625 2040.9276123046875 2034.312744140625 2027.6226806640625 2017.3843994140625 2004.7119140625 1993.316650390625 1984.7535400390625 1976.53857421875 1968.2210693359375 1959.3636474609375 1952.365234375 1943.7861328125 1932.8121337890625 1925.89013671875 1922.5517578125 1921.135009765625 1918.8956298828125 1911.61083984375 1905.070068359375 1903.2781982421875 1901.8572998046875 1896.5477294921875 1895.360107421875 1898.5794677734375 1899.77294921875 1899.8924560546875 1898.8267822265625 1898.0682373046875 1898.1270751953125 1897.1234130859375 1896.224365234375 1896.8349609375 1898.136474609375 1893.9461669921875 1890.2257080078125 1890.0462646484375 1889.49853515625 1889.4600830078125 1890.7877197265625 1893.9666748046875 1897.21728515625 1898.2047119140625 1899.0411376953125 1901.4013671875 1903.760986328125 1901.9056396484375 1899.3890380859375 1897.4078369140625 1895.8885498046875 1894.9632568359375 1892.043701171875 1892.1414794921875 1893.895751953125 1894.18017578125 1891.899658203125 1890.8736572265625 1893.085205078125 1899.0545654296875 1900.9097900390625 1897.27197265625 1894.4832763671875 1893.062744140625 1892.2720947265625 1891.593505859375 1891.4832763671875 1892.095703125 1892.579345703125 1890.2100830078125 1889.779296875 1889.118408203125 1887.84228515625 1885.3074951171875 1884.222412109375 1887.510498046875 1893.21826171875 1897.2529296875 1899.1141357421875 1894.6649169921875 1892.563232421875 1892.82421875 1893.529296875 1893.2412109375 1893.3662109375 1894.2686767578125 1894.0789794921875 1891.947509765625 1889.806640625 1889.845947265625 1888.689208984375 1886.13134765625 1884.233154296875 1885.21337890625 1889.42529296875 1891.306396484375 1889.4068603515625 1886.6397705078125 1882.0391845703125 1874.9085693359375 1872.2635498046875 1874.2235107421875 1877.53466796875 1878.8953857421875 1875.8740234375 1872.651123046875 1877.80029296875 1884.242431640625 1888.0125732421875 1889.5076904296875 1890.1219482421875 1888.5328369140625 1889.1990966796875 1890.8292236328125 1891.236083984375 1888.628662109375 1885.8123779296875 1885.326904296875 1885.983642578125 1887.0611572265625 1886.6925048828125 1886.383544921875 1886.6885986328125 1889.0804443359375 1889.3074951171875 1887.77197265625 1884.215087890625 1880.5709228515625 1879.6365966796875 1881.203857421875 1884.1290283203125 1886.001953125 1885.9664306640625 1884.58154296875 1881.3248291015625 1878.41259765625 1881.1697998046875 1884.744873046875 1883.093017578125 1881.273193359375 1881.5426025390625 1883.9376220703125 1888.1318359375 1892.419677734375 1891.33154296875 1888.56982421875 1883.9180908203125 1880.877685546875
-9999 -9999 -9999 -9999 1926.192626953125 1926.1929931640625 1926.1932373046875 1926.193603515625 1926.1939697265625 1926.1943359375 1926.1947021484375 1926.195068359375 1926.1953125 1926.1956787109375 1926.196044921875 1926.1964111328125 1926.19677734375 1926.197021484375 1926.1973876953125 1926.19775390625 1926.81640625 1929.3507080078125 1932.8037109375 1935.93115234375 1938.7666015625 1940.1180419921875 1939.6763916015625 1938.2012939453125 1936.4534912109375 1933.930908203125 1932.2020263671875 1932.4427490234375 1935.984619140625 1939.1868896484375 1942.5633544921875 1944.105712890625 1947.2998046875 1952.054931640625 1956.107666015625 1959.9786376953125 1965.142333984375 1971.0791015625 1972.402099609375 1974.17822265625 1979.5726318359375 1988.6673583984375 1998.494140625 2010.8427734375 2025.6368408203125 2037.266357421875 2049.278076171875 2059.181884765625 2065.181640625 2074.511474609375 2078.46923828125 2079.765380859375 2079.275146484375 2075.7548828125 2069.8681640625 2063.65283203125 2061.875244140625 2064.7451171875 2065 2064.419677734375 2058.772705078125 2053.671875 2047.116943359375 2041.4727783203125 2034.99462890625 2024.7508544921875 2009.4862060546875 1995.9395751953125 1987.5821533203125 1979.7039794921875 1970.2271728515625 1961.4886474609375 1954.1600341796875 1945.1455078125 1934.735107421875 1928.6226806640625 1925.0438232421875 1923.9210205078125 1922.28125 1914.99267578125 1907.799072265625 1906.8082275390625 1905.6109619140625 1897.53173828125 1895.045654296875 1896.7801513671875 1898.2230224609375 1898.441162109375 1897.6529541015625 1897.22314453125 1897.564697265625 1899.0826416015625 1899.366943359375 1900.305419921875 1900.735595703125 1894.8150634765625 1890.2254638671875 1890.9053955078125 1891.4439697265625 1891.4949951171875 1891.3671875 1893.9647216796875 1896.8760986328125 1899.321044921875 1901.9517822265625 1904.54638671875 1906.3199462890625 1905.575439453125 1903.3470458984375 1902.180908203125 1900.317138671875 1897.39404296875 1893.889892578125 1894.0517578125 1895.351806640625 1896.4215087890625 1894.469482421875 1895.751953125 1898.307373046875 1900.170166015625 1900.234130859375 1897.6153564453125 1895.26611328125 1894.3260498046875 1893.166748046875 1891.2200927734375 1889.6766357421875 1889.470458984375 1889.2376708984375 1888.795654296875 1887.4447021484375 1886.5611572265625 1886.3721923828125 1884.11279296875 1884.4447021484375 1889.216064453125 1894.2242431640625 1895.9490966796875 1896.7498779296875 1895.892822265625 1894.0302734375 1894.1533203125 1895.1995849609375 1893.81298828125 1893.2413330078125 1893.779296875 1894.333984375 1893.0606689453125 1891.3214111328125 1890.940185546875 1888.7344970703125 1885.924560546875 1884.70947265625 1885.385986328125 1889.52587890625 1891.596923828125 1889.8172607421875 1887.2236328125 1883.9102783203125 1878.7210693359375 1876.029541015625 1876.5211181640625 1878.46630859375 1879.566162109375 1878.0718994140625 1876.2908935546875 1879.088134765625 1883.327880859375 1885.926513671875 1887.8939208984375 1889.3045654296875 1889.01220703125 1889.480224609375 1890.796630859375 1891.4495849609375 1889.0439453125 1887.3321533203125 1887.2181396484375 1888.2657470703125 1888.25 1885.6033935546875 1885.72412109375 1887.1572265625 1889.305419921875 1889.5806884765625 1887.339111328125 1884.2777099609375 1880.79248046875 1879.9361572265625 1882.3992919921875 1885.413818359375 1887.5313720703125 1886.8067626953125 1885.2196044921875 1883.8858642578125 1881.5677490234375 1882.0172119140625 1884.3798828125 1884.48193359375 1882.305908203125 1881.280029296875 1883.832763671875 1887.91015625 1892.4224853515625 1891.6451416015625 1889.0133056640625 1885.249267578125 1883.8807373046875
-9999 -9999 -9999 -9999 1926.1923828125 1926.1927490234375 1926.1929931640625 1926.193359375 1926.1937255859375 1926.194091796875 1926.1944580078125 1926.19482421875 1926.195068359375 1926.1954345703125 1926.19580078125 1926.1961669921875 1926.196533203125 1926.1968994140625 1926.197265625 1926.1976318359375 1929.703857421875 1933.5428466796875 1935.167724609375 1937.62890625 1939.092041015625 1939.28271484375 1939.11767578125 1936.874755859375 1934.4892578125 1932.8531494140625 1932.537109375 1933.5643310546875 1935.689453125 1938.6256103515625 1943.2471923828125 1946.1392822265625 1948.48779296875 1953.6536865234375 1958.2496337890625 1961.770263671875 1966.0157470703125 1970.3355712890625 1972.3035888671875 1976.0302734375 1983.22314453125 1991.4913330078125 1999.3543701171875 2011.34375 2029.3917236328125 2041.14794921875 2053.078857421875 2062.69677734375 2071.31591796875 2081.144775390625 2087.087646484375 2089.154052734375 2088.783203125 2088.863525390625 2082.30517578125 2078.614990234375 2076.185546875 2073.84521484375 2071.473876953125 2068.6171875 2063.418212890625 2057.9619140625 2051.52783203125 2046.1453857421875 2038.6624755859375 2028.8714599609375 2011.8031005859375 1996.5341796875 1987.8739013671875 1980.98876953125 1971.7132568359375 1963.6644287109375 1957.578125 1949.64111328125 1939.9302978515625 1932.4813232421875 1926.9248046875 1925.8887939453125 1925.28271484375 1917.85107421875 1911.2144775390625 1909.4630126953125 1905.5211181640625 1898.7510986328125 1895.874267578125 1896.6854248046875 1898.7381591796875 1898.3050537109375 1897.703369140625 1897.572021484375 1899.5184326171875 1901.4814453125 1903.0845947265625 1903.8922119140625 1902.7021484375 1895.7069091796875 1891.194580078125 1892.705322265625 1893.7047119140625 1893.4942626953125 1894.70361328125 1894.408447265625 1896.15966796875 1899.7198486328125 1904.4376220703125 1906.416259765625 1906.5267333984375 1905.2000732421875 1905.431884765625 1905.15673828125 1903.1732177734375 1899.1676025390625 1896.9615478515625 1897.883544921875 1898.738525390625 1897.7247314453125 1896.987060546875 1898.9658203125 1900.5404052734375 1899.9549560546875 1899.37255859375 1898.01318359375 1896.4681396484375 1895.1380615234375 1894.7884521484375 1893.545166015625 1890.3997802734375 1889.5460205078125 1892.2073974609375 1892.021484375 1889.4249267578125 1888.8973388671875 1889.965087890625 1889.290771484375 1889.0804443359375 1893.2222900390625 1893.5911865234375 1891.7728271484375 1893.6199951171875 1894.7611083984375 1894.239990234375 1894.2181396484375 1895.091552734375 1893.9700927734375 1893.242431640625 1893.41455078125 1895.18505859375 1894.447998046875 1892.9127197265625 1891.3514404296875 1888.731689453125 1885.9453125 1884.998779296875 1885.1351318359375 1888.0146484375 1888.2294921875 1885.9775390625 1885.27587890625 1884.2188720703125 1882.5867919921875 1880.989501953125 1880.15673828125 1880.5540771484375 1879.9007568359375 1879.2762451171875 1878.05419921875 1878.93359375 1882.046142578125 1883.9979248046875 1886.7501220703125 1888.9886474609375 1889.5732421875 1889.235595703125 1890.4698486328125 1891.8466796875 1890.081787109375 1888.3760986328125 1889.4656982421875 1890.1549072265625 1887.94970703125 1885.727783203125 1885.5712890625 1886.9180908203125 1888.296630859375 1888.009521484375 1885.990234375 1883.5484619140625 1880.6612548828125 1880.244873046875 1883.3634033203125 1886.3878173828125 1887.109619140625 1884.2626953125 1882.8111572265625 1884.2281494140625 1883.7335205078125 1881.5853271484375 1882.155029296875 1884.0631103515625 1882.3768310546875 1880.644775390625 1884.6036376953125 1888.196533203125 1891.591796875 1890.8687744140625 1888.8497314453125 1887.67041015625 1886.6883544921875
-9999 -9999 -9999 -9999 1926.192138671875 1926.1925048828125 1926.19287109375 1926.193115234375 1926.1934814453125 1926.19384765625 1926.1942138671875 1926.194580078125 1926.19482421875 1926.1951904296875 1926.195556640625 1926.1959228515625 1926.1962890625 1926.1966552734375 1926.197021484375 1926.1973876953125 1934.29296875 1935.7935791015625 1936.9462890625 1940.4019775390625 1940.3057861328125 1940.3529052734375 1938.72705078125 1936.150146484375 1933.1954345703125 1932.2459716796875 1932.8834228515625 1933.9083251953125 1936.062744140625 1938.1317138671875 1944.32666015625 1947.4901123046875 1949.6778564453125 1953.1358642578125 1957.3216552734375 1963.02001953125 1967.538818359375 1969.8748779296875 1971.7891845703125 1977.322509765625 1986.334228515625 1994.8604736328125 2002.90576171875 2015.9622802734375 2033.2813720703125 2045.0537109375 2056.69140625 2067.156494140625 2077.78857421875 2088.243408203125 2094.292236328125 2096.673828125 2098.860107421875 2100.18310546875 2096.317138671875 2093.99658203125 2088.62744140625 2082.599853515625 2079.360595703125 2074.465087890625 2067.836669921875 2062.173828125 2055.914794921875 2049.624755859375 2038.2252197265625 2026.8397216796875 2013.2474365234375 1998.449462890625 1989.457275390625 1983.011962890625 1974.077880859375 1966.431884765625 1961.3272705078125 1954.974365234375 1945.8218994140625 1938.1165771484375 1932.125 1929.4873046875 1927.1187744140625 1920.6943359375 1914.784912109375 1909.89794921875 1903.402099609375 1898.7958984375 1897.688232421875 1897.21923828125 1898.5748291015625 1899.086669921875 1898.222412109375 1898.4775390625 1900.081298828125 1902.4420166015625 1904.13134765625 1904.322509765625 1901.264404296875 1894.6109619140625 1892.4031982421875 1894.9976806640625 1895.67724609375 1896.038818359375 1895.6094970703125 1894.931884765625 1895.3682861328125 1898.981689453125 1905.917724609375 1906.7969970703125 1903.855224609375 1901.726318359375 1902.3358154296875 1903.868896484375 1904.007080078125 1900.168701171875 1899.1611328125 1901.384521484375 1901.184814453125 1897.5533447265625 1895.75341796875 1898.59130859375 1898.7784423828125 1898.6011962890625 1898.490478515625 1898.917236328125 1897.56787109375 1896.2762451171875 1897.521240234375 1898.3114013671875 1898.8955078125 1897.5986328125 1897.6600341796875 1897.0087890625 1895.1240234375 1893.5516357421875 1894.47265625 1894.365478515625 1895.5809326171875 1897.7681884765625 1893.9190673828125 1891.4940185546875 1892.7176513671875 1894.314697265625 1894.3209228515625 1893.375732421875 1893.90625 1893.7000732421875 1893.3017578125 1893.978759765625 1895.24169921875 1894.6944580078125 1892.7413330078125 1890.6488037109375 1889.302001953125 1888.1309814453125 1886.72314453125 1885.1961669921875 1885.111328125 1885.3603515625 1884.2596435546875 1883.9390869140625 1884.7125244140625 1883.9652099609375 1882.6795654296875 1883.0655517578125 1883.217529296875 1881.504150390625 1879.1734619140625 1878.247802734375 1878.635498046875 1880.42333984375 1882.9815673828125 1886.9013671875 1889.1014404296875 1888.8765869140625 1887.30908203125 1888.245361328125 1891.4342041015625 1890.193115234375 1889.0894775390625 1890.2998046875 1889.8824462890625 1888.078369140625 1886.4246826171875 1886.0413818359375 1886.22265625 1886.640869140625 1886.2022705078125 1883.98291015625 1881.99365234375 1880.119140625 1880.2109375 1883.6959228515625 1886.1959228515625 1884.7939453125 1881.2490234375 1880.74462890625 1883.460205078125 1883.150146484375 1878.509521484375 1878.4266357421875 1882.005859375 1882.1844482421875 1882.48583984375 1885.802490234375 1888.8681640625 1889.9827880859375 1888.2410888671875 1886.498046875 1886.427001953125 1888.3800048828125
-9999 -9999 -9999 1926.191650390625 1926.19189453125 1926.1922607421875 1926.192626953125 1926.19287109375 1926.1932373046875 1926.193603515625 1926.1939697265625 1926.1943359375 1926.1947021484375 1926.195068359375 1926.1954345703125 1926.19580078125 1926.1961669921875 1926.196533203125 1926.19677734375 1926.1971435546875 1938.375244140625 1936.4393310546875 1938.7005615234375 1941.8507080078125 1942.69140625 1941.6461181640625 1938.8106689453125 1935.1578369140625 1932.631591796875 1931.5675048828125 1933.146484375 1935.3087158203125 1937.5108642578125 1939.8603515625 1944.0888671875 1948.1888427734375 1951.531494140625 1953.9808349609375 1959.149169921875 1965.403564453125 1969.4442138671875 1970.298583984375 1973.4498291015625 1981.3143310546875 1989.3544921875 1997.692626953125 2006.857666015625 2020.621337890625 2037.0526123046875 2049.671875 2062.05517578125 2075.946044921875 2086.14990234375 2095.10302734375 2100.049072265625 2103.33837890625 2107.5029296875 2107.570556640625 2104.603515625 2102.162353515625 2096.912353515625 2092.93310546875 2088.73974609375 2083.62744140625 2075.479736328125 2071.491455078125 2064.7529296875 2051.994140625 2037.4501953125 2024.2244873046875 2013.670654296875 2003.8853759765625 1994.330078125 1987.3975830078125 1975.31787109375 1969.20849609375 1964.7664794921875 1958.9127197265625 1949.5557861328125 1939.2138671875 1934.1510009765625 1931.4134521484375 1929.6123046875 1925.1031494140625 1919.100341796875 1911.4085693359375 1902.4195556640625 1900.4000244140625 1900.0399169921875 1898.8406982421875 1899.2911376953125 1899.33935546875 1898.0089111328125 1897.13330078125 1898.536865234375 1901.3638916015625 1902.1693115234375 1900.116943359375 1896.6815185546875 1894.16455078125 1894.38134765625 1896.8221435546875 1898.0269775390625 1897.71923828125 1895.8310546875 1895.456787109375 1896.577392578125 1903.758544921875 1908.750244140625 1905.997802734375 1901.8602294921875 1899.7816162109375 1902.0042724609375 1904.314208984375 1904.4912109375 1900.9580078125 1900.55908203125 1902.7242431640625 1901.9542236328125 1896.103515625 1893.374755859375 1895.18115234375 1897.5699462890625 1897.75244140625 1897.8681640625 1898.7425537109375 1898.7987060546875 1898.65869140625 1899.7860107421875 1904.50146484375 1908.3726806640625 1905.2713623046875 1900.11279296875 1899.353515625 1899.77001953125 1897.7889404296875 1898.310791015625 1897.844482421875 1899.36474609375 1900.220458984375 1897.3018798828125 1894.1644287109375 1894.30224609375 1895.2392578125 1894.9556884765625 1893.5340576171875 1892.7552490234375 1893.0977783203125 1893.8302001953125 1894.83349609375 1895.241455078125 1894.4129638671875 1891.661376953125 1889.267333984375 1889.3919677734375 1890.14208984375 1887.974609375 1884.5794677734375 1883.0413818359375 1882.6553955078125 1883.1014404296875 1884.879638671875 1886.9393310546875 1885.8096923828125 1884.452392578125 1884.6854248046875 1884.9251708984375 1882.3721923828125 1879.3685302734375 1878.4805908203125 1879.255126953125 1880.6241455078125 1884.1065673828125 1888.1929931640625 1889.1904296875 1887.0565185546875 1885.237548828125 1886.34765625 1889.6937255859375 1890.2508544921875 1890.3814697265625 1891.228515625 1891.517822265625 1889.7108154296875 1888.1741943359375 1886.5218505859375 1884.5875244140625 1884.9481201171875 1884.652099609375 1882.9776611328125 1880.595703125 1879.7060546875 1880.7694091796875 1883.9117431640625 1886.5394287109375 1884.1116943359375 1880.986572265625 1879.7840576171875 1880.43310546875 1880.39013671875 1876.3475341796875 1876.9627685546875 1880.4202880859375 1882.65087890625 1885.5294189453125 1888.2034912109375 1889.140380859375 1888.110107421875 1884.45263671875 1882.7340087890625 1885.268310546875 1889.185302734375
-9999 -9999 -9999 1926.1912841796875 1926.191650390625 1926.1920166015625 1926.1923828125 1926.192626953125 1926.1929931640625 1926.193359375 1926.1937255859375 1926.194091796875 1926.1944580078125 1926.19482421875 1926.1951904296875 1926.195556640625 1926.1959228515625 1926.1962890625 1926.1966552734375 1928.4415283203125 1935.671142578125 1935.9044189453125 1938.677734375 1941.578857421875 1943.01171875 1942.40234375 1937.949951171875 1932.3363037109375 1929.1358642578125 1930.48046875 1933.348388671875 1935.7869873046875 1938.8277587890625 1941.4224853515625 1944.039794921875 1948.6348876953125 1954.075439453125 1957.3267822265625 1962.24560546875 1967.3973388671875 1971.04443359375 1971.8753662109375 1976.3011474609375 1983.650390625 1990.9146728515625 1999.686279296875 2010.5645751953125 2025.1182861328125 2040.018310546875 2055.29150390625 2068.8310546875 2081.96142578125 2091.859130859375 2099.7646484375 2105.94580078125 2110.824951171875 2113.513916015625 2113.18798828125 2108.432373046875 2106.3154296875 2104.01611328125 2102.335205078125 2096.96826171875 2093.157470703125 2088.080078125 2083.9169921875 2070.154296875 2056.47998046875 2041.416748046875 2027.2540283203125 2017.358154296875 2009.14697265625 2001.3603515625 1991.8441162109375 1981.9505615234375 1974.8101806640625 1967.657470703125 1961.5167236328125 1952.585693359375 1941.4083251953125 1935.275634765625 1932.25244140625 1931.47119140625 1930.47705078125 1922.793701171875 1914.3729248046875 1906.98095703125 1905.5582275390625 1904.458984375 1901.3511962890625 1900.548828125 1898.8272705078125 1895.859619140625 1894.83740234375 1896.598388671875 1899.2281494140625 1898.7918701171875 1896.971923828125 1895.32080078125 1894.6834716796875 1895.931640625 1898.483642578125 1900.2701416015625 1899.2945556640625 1896.24853515625 1896.8583984375 1902.217041015625 1906.3642578125 1907.962158203125 1904.672119140625 1901.836181640625 1902.457763671875 1905.2060546875 1907.2117919921875 1906.5101318359375 1902.6273193359375 1902.00830078125 1903.7491455078125 1902.1734619140625 1897.60107421875 1894.79052734375 1896.610595703125 1898.2332763671875 1898.6737060546875 1899.1165771484375 1899.8590087890625 1900.96630859375 1901.445556640625 1901.02294921875 1905.9068603515625 1909.6085205078125 1905.8946533203125 1899.621337890625 1897.503173828125 1897.009521484375 1898.7901611328125 1900.0892333984375 1899.537109375 1900.1829833984375 1901.0296630859375 1899.37255859375 1897.5794677734375 1896.0643310546875 1895.239013671875 1895.1197509765625 1893.9388427734375 1892.88037109375 1893.121826171875 1894.8287353515625 1895.21826171875 1894.315673828125 1893.7796630859375 1891.621337890625 1889.2423095703125 1889.776123046875 1890.2171630859375 1887.7718505859375 1884.2783203125 1881.96484375 1880.4725341796875 1882.48095703125 1886.1854248046875 1888.9696044921875 1887.8941650390625 1885.75634765625 1884.943359375 1884.7779541015625 1882.396484375 1880.279541015625 1880.0496826171875 1881.1922607421875 1882.074462890625 1885.234619140625 1888.2998046875 1888.639404296875 1885.9290771484375 1884.702392578125 1886.0213623046875 1888.485107421875 1889.9736328125 1891.65869140625 1892.1611328125 1892.251708984375 1891.26806640625 1890.2186279296875 1887.59130859375 1884.7674560546875 1884.2506103515625 1884.1380615234375 1883.1846923828125 1881.361572265625 1880.7470703125 1881.438232421875 1883.997314453125 1886.253662109375 1886.0809326171875 1882.63037109375 1880.128662109375 1878.12353515625 1877.83544921875 1877.08056640625 1877.4114990234375 1880.1505126953125 1882.800537109375 1886.7232666015625 1889.7327880859375 1889.508056640625 1886.8536376953125 1883.7899169921875 1882.882080078125 1885.4691162109375 1888.93896484375
-9999 -9999 -9999 1926.1910400390625 1926.19140625 1926.1917724609375 1926.192138671875 1926.1925048828125 1926.1927490234375 1926.193115234375 1926.1934814453125 1926.1939697265625 1926.1943359375 1926.194580078125 1926.1949462890625 1926.1953125 1926.1956787109375 1926.196044921875 1926.1964111328125 1929.0816650390625 1932.4005126953125 1934.3955078125 1938.5478515625 1941.92626953125 1944.5904541015625 1942.61669921875 1936.90869140625 1929.7283935546875 1927.9373779296875 1930.9818115234375 1934.06494140625 1936.0665283203125 1940.0291748046875 1942.4219970703125 1944.571044921875 1949.0888671875 1954.6920166015625 1960.3201904296875 1965.09228515625 1968.525634765625 1970.62939453125 1972.33447265625 1977.4915771484375 1983.9293212890625 1990.718994140625 2000.19482421875 2012.35546875 2029.4735107421875 2044.1429443359375 2061.344970703125 2074.16357421875 2085.60498046875 2096.31591796875 2104.611328125 2113.72705078125 2118.584228515625 2122.321533203125 2121.076904296875 2114.384033203125 2108.28857421875 2108.499267578125 2106.10400390625 2101.436767578125 2097.960693359375 2094.572509765625 2083.076171875 2068.775390625 2060.904052734375 2050.545166015625 2034.8985595703125 2022.9361572265625 2013.6920166015625 2004.95849609375 1995.7802734375 1986.8155517578125 1978.8338623046875 1970.3016357421875 1962.115234375 1952.8741455078125 1943.4373779296875 1937.1485595703125 1934.0848388671875 1932.7637939453125 1930.5689697265625 1926.0120849609375 1918.7716064453125 1912.7330322265625 1909.4874267578125 1905.6146240234375 1903.298828125 1901.993408203125 1898.248291015625 1895.052001953125 1893.817626953125 1895.397216796875 1897.4293212890625 1897.8018798828125 1896.5313720703125 1895.7337646484375 1895.518310546875 1896.9915771484375 1899.8077392578125 1901.2144775390625 1900.9486083984375 1898.892578125 1901.7939453125 1905.941650390625 1907.1759033203125 1906.65673828125 1903.7579345703125 1902.171875 1904.8985595703125 1908.7677001953125 1910.7364501953125 1909.9676513671875 1905.6002197265625 1905.07958984375 1905.4036865234375 1904.6365966796875 1903.5499267578125 1900.9300537109375 1900.5347900390625 1900.6844482421875 1901.4461669921875 1901.9034423828125 1901.6788330078125 1902.98779296875 1903.9354248046875 1903.2979736328125 1904.9854736328125 1906.4879150390625 1902.8074951171875 1897.9373779296875 1895.5185546875 1895.71337890625 1899.0985107421875 1900.9072265625 1900.3206787109375 1900.066162109375 1899.8016357421875 1899.6065673828125 1898.40478515625 1896.06396484375 1895.2388916015625 1895.2391357421875 1895.3360595703125 1894.7059326171875 1894.214111328125 1895.1519775390625 1894.30859375 1892.9486083984375 1892.41162109375 1890.3511962890625 1888.5050048828125 1888.76025390625 1888.5814208984375 1885.723876953125 1884.1259765625 1881.78173828125 1880.127197265625 1882.151123046875 1886.45947265625 1889.2449951171875 1887.849609375 1885.0245361328125 1883.4840087890625 1882.8260498046875 1882.065185546875 1881.656494140625 1882.447265625 1883.30126953125 1883.763427734375 1884.5576171875 1886.6226806640625 1888.517822265625 1888.346435546875 1886.7508544921875 1886.5721435546875 1887.722412109375 1889.1527099609375 1890.6036376953125 1891.491455078125 1890.5186767578125 1890.4183349609375 1890.160400390625 1887.9073486328125 1886.2962646484375 1884.989013671875 1883.658935546875 1882.47021484375 1880.763671875 1881.241943359375 1881.622314453125 1880.340576171875 1882.69921875 1885.283203125 1884.9246826171875 1882.14404296875 1879.512451171875 1879.9000244140625 1879.376708984375 1878.779052734375 1880.2657470703125 1883.436767578125 1887.0538330078125 1889.818603515625 1889.11474609375 1886.405517578125 1884.4056396484375 1884.5740966796875 1886.770263671875 1888.832275390625
-9999 -9999 -9999 1926.1907958984375 1926.191162109375 1926.1915283203125 1926.19189453125 1926.1922607421875 1926.1925048828125 1926.1929931640625 1926.193359375 1926.1937255859375 1926.194091796875 1926.1944580078125 1926.1947021484375 1926.195068359375 1926.1954345703125 1926.19580078125 1926.1961669921875 1929.800537109375 1931.279296875 1933.2918701171875 1938.9322509765625 1944.1578369140625 1947.327392578125 1943.3922119140625 1936.2646484375 1930.2061767578125 1929.841552734375 1935.0025634765625 1938.67236328125 1938.7359619140625 1941.7449951171875 1943.8037109375 1946.8831787109375 1950.4925537109375 1956.039306640625 1962.107666015625 1967.160888671875 1969.837646484375 1970.910888671875 1972.2869873046875 1978.4755859375 1984.700439453125 1991.74072265625 2001.8494873046875 2017.6456298828125 2035.148681640625 2051.398681640625 2065.31884765625 2076.97900390625 2089.520263671875 2101.372314453125 2112.0546875 2124.28173828125 2130.01171875 2130.582763671875 2128.034912109375 2121.01806640625 2113.66796875 2111.10791015625 2108.453857421875 2103.183349609375 2101.507568359375 2095.09619140625 2078.47705078125 2062.79150390625 2058.29736328125 2054.27587890625 2041.26171875 2029.8011474609375 2016.6903076171875 2002.8223876953125 1993.788330078125 1988.359619140625 1982.45556640625 1972.388671875 1962.5596923828125 1952.3582763671875 1946.578125 1941.216796875 1937.9156494140625 1935.4486083984375 1932.3148193359375 1928.3193359375 1923.005126953125 1916.6705322265625 1912.9561767578125 1906.1998291015625 1904.4766845703125 1903.4503173828125 1899.07373046875 1895.9891357421875 1894.76123046875 1895.517822265625 1896.87548828125 1897.2822265625 1896.861083984375 1896.253173828125 1896.3658447265625 1899.24755859375 1901.1063232421875 1902.112548828125 1902.8551025390625 1904.574462890625 1907.0618896484375 1908.09765625 1908.033935546875 1906.943115234375 1906.1241455078125 1905.25341796875 1907.547607421875 1910.3482666015625 1911.3548583984375 1910.07958984375 1908.6419677734375 1907.9013671875 1908.3431396484375 1909.0018310546875 1908.157470703125 1905.936767578125 1905.5118408203125 1903.1741943359375 1904.2471923828125 1904.44140625 1903.9569091796875 1904.86669921875 1905.8077392578125 1904.44970703125 1903.2313232421875 1901.6617431640625 1898.7926025390625 1898.25634765625 1896.8702392578125 1897.3048095703125 1899.558349609375 1900.710205078125 1900.781005859375 1899.3690185546875 1898.4385986328125 1897.982666015625 1896.6031494140625 1895.393310546875 1895.2386474609375 1896.1156005859375 1897.0330810546875 1896.989501953125 1895.6171875 1894.611083984375 1893.2493896484375 1892.36865234375 1891.59716796875 1889.7161865234375 1887.1273193359375 1886.7279052734375 1888.1341552734375 1885.8529052734375 1884.0814208984375 1882.8671875 1882.120849609375 1883.6717529296875 1886.666015625 1888.166748046875 1885.5972900390625 1882.510009765625 1881.5322265625 1880.893798828125 1881.3759765625 1882.152587890625 1883.1806640625 1883.318115234375 1883.461669921875 1883.59326171875 1884.838134765625 1888.2393798828125 1889.6375732421875 1887.893798828125 1887.2518310546875 1887.523193359375 1889.4371337890625 1890.3458251953125 1890.0341796875 1887.712158203125 1885.60009765625 1886.3123779296875 1887.9334716796875 1888.3199462890625 1886.783203125 1884.190185546875 1882.916015625 1881.8336181640625 1881.7010498046875 1879.43310546875 1875.11328125 1877.35546875 1883.9022216796875 1885.862548828125 1883.805908203125 1882.36474609375 1882.8946533203125 1882.8343505859375 1880.746337890625 1881.6834716796875 1884.271484375 1887.5406494140625 1889.2462158203125 1888.024169921875 1885.261474609375 1884.81298828125 1886.40625 1888.19091796875 1889.2449951171875
-9999 -9999 1926.1903076171875 1926.1905517578125 1926.19091796875 1926.1912841796875 1926.191650390625 1926.1920166015625 1926.1923828125 1926.1927490234375 1926.193115234375 1926.1934814453125 1926.19384765625 1926.1942138671875 1926.1944580078125 1926.19482421875 1926.1951904296875 1926.195556640625 1926.263671875 1931.368408203125 1932.7945556640625 1936.416015625 1942.1575927734375 1947.5513916015625 1950.750244140625 1943.3388671875 1932.72412109375 1930.3740234375 1934.317138671875 1940.266845703125 1941.824462890625 1942.0469970703125 1943.5770263671875 1945.6856689453125 1948.9815673828125 1952.194091796875 1956.096923828125 1962.501708984375 1967.3602294921875 1970.8262939453125 1971.8841552734375 1974.1817626953125 1981.2440185546875 1989.0787353515625 1997.6279296875 2010.062255859375 2024.8040771484375 2039.2056884765625 2054.161376953125 2066.67333984375 2079.36328125 2092.957275390625 2105.35205078125 2117.1474609375 2130.1044921875 2135.482421875 2134.16259765625 2131.19970703125 2125.41357421875 2119.71923828125 2117.147216796875 2114.399169921875 2107.06640625 2104.7822265625 2095.59521484375 2079.504638671875 2065.278564453125 2059.7412109375 2055.63330078125 2047.5841064453125 2035.843994140625 2019.4610595703125 2002.53955078125 1992.7291259765625 1989.0947265625 1984.760986328125 1975.52294921875 1963.6622314453125 1954.488525390625 1950.1409912109375 1946.336669921875 1943.47998046875 1940.1209716796875 1934.522705078125 1928.8875732421875 1925.0982666015625 1921.1817626953125 1915.41162109375 1907.872802734375 1905.055908203125 1902.74267578125 1899.6005859375 1897.8250732421875 1896.8048095703125 1896.272216796875 1896.3824462890625 1897.2327880859375 1897.554931640625 1896.77978515625 1898.04541015625 1900.723876953125 1902.2227783203125 1903.47607421875 1904.9354248046875 1906.603759765625 1908.0501708984375 1908.724853515625 1908.9886474609375 1909.32275390625 1909.4564208984375 1908.978759765625 1909.6722412109375 1909.322509765625 1908.9029541015625 1909.9609375 1909.87744140625 1909.5267333984375 1910.213134765625 1910.953369140625 1910.449462890625 1909.1964111328125 1909.0992431640625 1906.8907470703125 1905.9000244140625 1905.500732421875 1905.0118408203125 1905.90185546875 1906.9117431640625 1905.1312255859375 1901.7894287109375 1898.046630859375 1895.6036376953125 1897.77099609375 1898.83349609375 1899.3148193359375 1900.2642822265625 1901.8265380859375 1901.84130859375 1899.3314208984375 1897.107177734375 1896.1507568359375 1895.328125 1895.4395751953125 1896.43310546875 1896.8292236328125 1896.1976318359375 1895.9083251953125 1894.671630859375 1893.621826171875 1893.240478515625 1893.2037353515625 1892.0340576171875 1890.172119140625 1886.6971435546875 1885.7445068359375 1887.562744140625 1886.7735595703125 1885.148681640625 1884.8558349609375 1884.307861328125 1884.2998046875 1885.3531494140625 1886.1219482421875 1882.9915771484375 1880.23828125 1879.4267578125 1878.7117919921875 1879.634521484375 1880.96533203125 1881.025634765625 1881.3017578125 1882.5982666015625 1883.213134765625 1885.103271484375 1886.910888671875 1888.4454345703125 1887.7667236328125 1887.4981689453125 1888.5802001953125 1889.3873291015625 1890.307373046875 1889.8787841796875 1886.4493408203125 1883.7789306640625 1884.879638671875 1887.84814453125 1889.7783203125 1889.0037841796875 1887.2470703125 1885.5963134765625 1884.40380859375 1884.332763671875 1881.3804931640625 1875.2305908203125 1876.8189697265625 1882.052978515625 1883.0887451171875 1880.775390625 1882.0194091796875 1885.063720703125 1885.311767578125 1882.7216796875 1882.263427734375 1884.5849609375 1888.293701171875 1889.4827880859375 1887.4615478515625 1884.2998046875 1884.9698486328125 1887.4066162109375 1888.4862060546875 1889.2447509765625
-9999 -9999 1926.1900634765625 1926.1903076171875 1926.190673828125 1926.1910400390625 1926.19140625 1926.1917724609375 1926.1922607421875 1926.1925048828125 1926.19287109375 1926.1932373046875 1926.193603515625 1926.1939697265625 1926.1942138671875 1926.194580078125 1926.1949462890625 1926.1953125 1927.591796875 1932.679443359375 1936.14501953125 1940.8148193359375 1946.4949951171875 1949.4345703125 1951.0318603515625 1940.1129150390625 1929.247802734375 1932.6409912109375 1937.2802734375 1941.6651611328125 1943.51171875 1944.3829345703125 1945.418212890625 1948.0556640625 1949.9678955078125 1951.74169921875 1956.5772705078125 1962.380859375 1966.6455078125 1970.9093017578125 1973.5416259765625 1977.587890625 1984.6171875 1992.812255859375 2003.7513427734375 2017.6947021484375 2029.340576171875 2040.1485595703125 2051.6826171875 2066.80517578125 2080.515380859375 2092.71875 2103.9931640625 2117.403564453125 2130.65966796875 2135.6943359375 2135.039794921875 2132.25244140625 2127.025390625 2125.786865234375 2125.7646484375 2124.702392578125 2117.53271484375 2109.478515625 2100.903564453125 2088.425537109375 2078.042236328125 2068.634521484375 2061.342041015625 2053.410400390625 2041.022216796875 2025.668212890625 2009.695068359375 1996.7064208984375 1990.0538330078125 1986.06396484375 1978.9097900390625 1967.426025390625 1958.463623046875 1953.4097900390625 1949.2117919921875 1946.9964599609375 1942.8670654296875 1935.4661865234375 1929.38720703125 1925.6722412109375 1922.34326171875 1915.6806640625 1909.825927734375 1905.4996337890625 1901.94287109375 1900.4150390625 1899.840576171875 1898.378173828125 1897.10009765625 1897.0928955078125 1898.100341796875 1898.68505859375 1898.72412109375 1900.071044921875 1901.73828125 1902.696044921875 1903.90869140625 1906.01904296875 1907.2181396484375 1907.10791015625 1907.0673828125 1908.279296875 1909.923828125 1910.8695068359375 1911.445556640625 1911.005126953125 1908.75927734375 1907.125 1909.4815673828125 1910.9266357421875 1910.7200927734375 1911.16162109375 1911.22998046875 1910.6915283203125 1910.0830078125 1910.71484375 1908.8922119140625 1907.0272216796875 1906.1571044921875 1904.712890625 1906.21533203125 1906.4959716796875 1905.901611328125 1902.2613525390625 1897.9830322265625 1896.616455078125 1898.2943115234375 1899.8546142578125 1900.0582275390625 1900.2017822265625 1902.0340576171875 1902.236328125 1899.804443359375 1896.366455078125 1895.2708740234375 1894.98779296875 1895.5693359375 1896.93017578125 1895.988037109375 1895.3623046875 1894.7916259765625 1893.431640625 1893.0181884765625 1893.2955322265625 1893.892822265625 1892.450439453125 1890.503662109375 1887.5877685546875 1886.242431640625 1887.117431640625 1887.404296875 1886.8189697265625 1887.314453125 1886.8133544921875 1884.18798828125 1883.4505615234375 1883.635498046875 1881.3123779296875 1879.064453125 1877.6982421875 1876.899169921875 1877.203125 1878.282958984375 1878.892578125 1879.7349853515625 1882.0106201171875 1883.06201171875 1882.42041015625 1882.6373291015625 1884.7291259765625 1886.48388671875 1887.264404296875 1887.6513671875 1888.5718994140625 1890.60205078125 1890.4168701171875 1887.9151611328125 1886.1500244140625 1886.6116943359375 1887.1470947265625 1888.1285400390625 1888.34716796875 1888.249267578125 1887.453125 1887.324462890625 1888.67822265625 1886.3011474609375 1878.9063720703125 1878.6441650390625 1880.06201171875 1879.1617431640625 1878.51025390625 1881.2315673828125 1885.1285400390625 1885.595458984375 1883.5379638671875 1882.8270263671875 1884.3331298828125 1888.92236328125 1891.8795166015625 1888.7547607421875 1885.117431640625 1885.286865234375 1887.5460205078125 1887.8665771484375 1887.9658203125
